# .PCD v0.7 - Point Cloud Data file format
VERSION 0.7
FIELDS x y z intensity
SIZE 4 4 4 4
TYPE F F F F
COUNT 1 1 1 1
WIDTH 1268
HEIGHT 1
VIEWPOINT 0 0 0 1 0 0 0
POINTS 1268
DATA ascii
-1.0549819 6.9510098 5.8485827 7.2390823
-0.79308754 6.9443655 5.8786168 6.820611
-0.43371686 7.0256805 5.7603631 5.6533909
-0.19334207 6.9529333 5.9143114 5.8100958
0.1181905 6.9533954 5.838325 7.1015687
0.43236536 6.9828424 5.7660098 6.0131922
0.73167932 6.9699221 5.8075275 6.7218261
1.0432584 6.958477 5.8485065 6.8307481
1.3526586 6.9746385 5.8260198 6.4303451
1.645842 6.9618678 5.8555713 6.5521622
1.9495571 6.9554148 5.8512502 5.4662271
2.2864823 6.9715695 5.8333082 5.8274016
2.5963879 6.9746823 5.8415494 5.8117943
2.8577919 6.9721942 5.8327408 4.9604373
3.1262617 6.9720101 5.8061333 6.200026
3.396297 6.9862685 5.8052511 5.5025482
3.7460022 6.9817524 5.7775669 5.5645752
4.0299511 6.9790368 5.8247561 6.5716801
4.3111115 6.9749207 5.8668761 4.7017417
4.5947332 6.9785585 5.760993 5.2693648
4.9779825 6.9931798 5.7911248 5.486105
5.2834439 6.9793143 5.8375735 4.3681645
5.452189 6.9781866 5.8772888 5.4831333
5.8052025 6.9802556 5.817513 5.7327609
6.0614815 6.941999 5.8979959 6.2918444
6.8826284 6.9607182 5.7250824 4.015625
7.113647 6.9820518 5.7841935 4.7294478
7.3397126 6.9845023 5.8072734 5.5479221
7.6429486 6.9826465 5.8394952 5.0456691
7.9799643 6.9951587 5.803031 5.3022046
8.2459278 6.9987292 5.8277979 5.5069709
8.5246544 6.9780579 5.8624687 4.3371735
8.8251619 6.9893317 5.7747736 5.0662155
9.0991497 7.090528 5.8036966 4.334022
9.4181347 6.9785814 5.826478 3.9703493
9.8306131 6.9871216 5.8404617 4.1646233
10.123804 6.9759436 5.8577185 4.1237473
10.302316 6.9993968 5.8495541 4.1666665
10.61574 7.0208902 5.7975965 5.5
10.964588 7.0108376 5.8255577 5.3125
11.250872 7.0101614 5.8145218 5.1741071
11.648119 6.9589467 5.8431292 3.8333335
11.881076 7.0064654 5.7636695 4.3333335
12.153571 6.9944491 5.8010416 4.3697882
12.439471 6.9896336 5.82447 5.3140445
12.687053 6.9972396 5.8157172 5.6981988
13.053802 6.9847884 5.8336391 5.7216816
13.405948 7.0012803 5.8079162 4.6720395
13.730087 7.0270476 5.8103805 6.1956124
13.986711 6.9486513 5.8343253 4.3704681
14.22257 7.0069289 5.820148 4.6954565
14.433428 6.9355679 5.8826423 3.65625
-14.387612 7.2206473 5.8944492 4
-13.961184 7.3558474 5.906168 3.5
-13.608028 7.3762522 5.9003696 3
-12.979652 7.4209242 5.8787441 5.5
-12.746469 7.3596306 5.9155903 3.75
-12.425719 7.3319764 5.8945961 3.0208333
-12.254091 7.2612333 5.9240608 4.5
-11.833473 7.404191 5.9132667 3.8700001
-11.653671 7.3624792 5.9089193 3.5
-10.303539 7.3546796 5.9018731 4.1780667
-10.164027 7.4004459 5.9039092 4.1136909
-9.730998 7.4486575 5.9115129 4.2094655
-9.4014387 7.4383049 5.916451 3.6119473
-9.1107225 7.4244905 5.8996201 3.3563173
-8.8799782 7.4225478 5.9076295 3.7568908
-8.5565815 7.377748 5.9065418 4.5819302
-8.2651539 7.3694916 5.89814 4.4061375
-8.0148478 7.3825874 5.8981748 4.0819645
-7.6325631 7.3789916 5.8719301 4.7045135
-7.3475256 7.4312487 5.8825846 4.6241002
-7.0352845 7.4232364 5.8819442 4.7299881
-6.6777029 7.4139519 5.8576403 3.6534631
-6.4671617 7.4396062 5.8706264 4.082633
-6.1196365 7.3718843 5.8583908 4.8405352
-5.8334775 7.3618317 5.8595548 4.1746836
-5.5482688 7.3613057 5.8682904 4.3241839
-5.3023 7.3743076 5.8574872 4.4949422
-4.9483261 7.35988 5.869585 5.3403344
-4.6651216 7.3743696 5.8535042 4.5555496
-4.3414531 7.3628898 5.8661499 4.9169416
-4.0598989 7.3912024 5.8715019 5.089417
-3.7480836 7.4411087 5.8841166 3.2538195
-3.4011796 7.3760386 5.8478065 4.6794791
-3.1262808 7.4117813 5.8887415 4.3099713
-2.8959167 7.394043 5.8905869 3.4010277
-2.5621469 7.4256124 5.8914518 3.7519443
-2.3430288 7.3026171 5.8818126 3
-1.9705662 7.4355884 5.8324323 4.1536765
-1.6527884 7.4311485 5.9055223 4.7399445
-1.3445441 7.4353061 5.896101 4.8508992
-1.0419189 7.4154339 5.8825397 4.9763899
-0.81638461 7.4243755 5.8679175 5.1994777
-0.4583939 7.4565716 5.8706341 4.8129869
-0.16544256 7.4721856 5.8787675 5.269918
0.23753671 7.3963981 5.8650336 4.1135554
0.52325433 7.3794575 5.8690977 3.7989845
0.74851346 7.4359026 5.8643246 5.040185
1.018667 7.3971806 5.8746042 5.2169619
1.3108479 7.4450521 5.8612299 4.5836401
1.6041185 7.4227457 5.8471603 4.0403695
1.9976168 7.374434 5.8440199 4.566443
2.2403681 7.3437519 5.8325629 4.4083557
2.5732999 7.3219576 5.8293252 4.0817499
2.7922673 7.4162741 5.8565559 3.8511615
3.1893361 7.4535708 5.8683262 4.0989919
3.4855065 7.4298577 5.8543653 4.4010563
3.7098746 7.4403563 5.8704553 3.7169809
4.1205015 7.4436607 5.8751884 2.7053511
4.3875856 7.4592881 5.8659139 3.6479237
4.6234579 7.4593658 5.8623552 3.898972
4.9793792 7.4343166 5.8536639 4.0641632
5.232255 7.3984723 5.8702116 4.1860042
5.4390287 7.4627552 5.856329 3.177012
5.8860106 7.4148154 5.8533969 3.8615448
6.0604005 7.4052596 5.8043032 4.0402594
7.1241808 7.4104342 5.8609352 3.4246476
7.3157177 7.3615947 5.8263402 3.4945087
7.6102195 7.4065719 5.8272552 4.5436668
7.9332948 7.4561958 5.8136058 4.0452766
8.2570114 7.4122024 5.8449249 3.5569897
8.4520493 7.3984947 5.8433104 3.0349422
8.9412308 7.4094834 5.8411736 4.1520309
9.1177397 7.4277444 5.8338647 4.0046391
9.3969336 7.4360323 5.8331285 4.3076
9.7775726 7.4268041 5.8170738 2.9465053
9.98207 7.4015121 5.8187461 4.1157289
10.305126 7.4033103 5.8290443 3.6845546
10.516363 7.4048233 5.8257504 4.25
10.981447 7.4506602 5.8293614 3
11.268284 7.4086514 5.8438244 3
12.208519 7.4539919 5.7968497 3.75
12.457122 7.3582115 5.8083305 3
12.799179 7.4091301 5.7827973 5.4166665
13.139172 7.415947 5.7905178 4.0972223
13.354933 7.456151 5.8007441 3.9541669
13.66665 7.3964415 5.8373108 3.3888888
13.916878 7.4396677 5.8123055 4.2526045
14.249985 7.446116 5.8230371 3.049479
-14.258195 7.5351706 5.8615274 4
-13.949936 7.5639076 5.9038868 4
-13.113113 7.5594759 5.7609401 4
-12.688228 7.5183578 5.8909922 4
-12.324793 7.7171698 5.8538871 4
-12.15958 7.6279383 5.8891649 3.4666667
-11.780065 7.6695609 5.88273 3.9791667
-11.578188 7.6078572 5.8655291 4
-10.258739 7.600306 5.8830142 3.449441
-10.073174 7.643137 5.8802047 3.8316472
-9.6991806 7.6421299 5.8821292 3.4613879
-9.4200048 7.6127663 5.8981137 4.2510538
-9.1103687 7.6608334 5.8891764 3.6395774
-8.8094769 7.6922998 5.8779726 4.2187347
-8.5472736 7.6706223 5.8692217 4.6237078
-8.2708769 7.6883149 5.8700686 4.3471785
-7.9482627 7.7263961 5.8510189 4.6972356
-7.6824498 7.7249222 5.8618312 4.0122833
-7.3599634 7.7022958 5.8625803 4.6978879
-6.9753761 7.6650844 5.8705611 4.4732261
-6.7747908 7.7139206 5.881814 2.4014986
-6.4060111 7.6099267 5.8451729 3.6734905
-6.1170597 7.6568613 5.8393269 4.5384221
-5.8466673 7.6656842 5.8305717 4.5481858
-5.5709825 7.7085114 5.8389006 4.2513914
-5.2995162 7.6759081 5.83601 4.2246389
-4.9841533 7.7237563 5.8397169 4.7267175
-4.6501851 7.7376385 5.8460207 4.6583672
-4.3112073 7.6771946 5.830842 5.2657051
-4.0405536 7.6541481 5.8420997 4.4906344
-3.8030038 7.6542301 5.8444929 3.8692131
-3.4135218 7.7296162 5.8467288 4.2049298
-3.1909337 7.6459327 5.8471012 4.1781688
-2.8790581 7.5880742 5.8531599 4.2103982
-2.5583544 7.6495686 5.8636999 3.8206644
-2.361599 7.6341314 5.8645048 3.8333333
-1.9051366 7.5739765 5.8872356 5.1293592
-1.6837226 7.6249022 5.8678479 4.5460544
-1.344812 7.6240511 5.8612165 4.9856176
-1.0623538 7.5780602 5.8613768 5.5693092
-0.81773198 7.5549254 5.8752155 4.9898491
-0.43342283 7.6319523 5.8397079 4.8870006
-0.19530046 7.634213 5.843554 4.8064427
0.032697871 7.6149883 5.8529396 5.0790544
0.49169603 7.5433421 5.8502088 3.8659661
0.72804272 7.6902928 5.8329587 4.9440393
1.0151783 7.6377559 5.8343086 4.5904708
1.3036247 7.6131868 5.8466802 4.5956554
1.6955193 7.6623211 5.8424911 4.7507777
1.9186684 7.6252031 5.8578916 3.8686042
2.2779076 7.6427255 5.8577313 3.1903603
2.586843 7.7108994 5.8535252 3.9558921
2.8420029 7.6506166 5.8509712 4.3776865
3.1574507 7.6437316 5.8517179 4.383585
3.4591737 7.6708469 5.8389301 3.8351314
3.7660334 7.575191 5.8591938 3.7803619
4.1619878 7.7634406 5.8300304 3.9674189
4.3993645 7.6604185 5.8401012 3.5495679
4.6821394 7.6109819 5.8487577 3.2595763
4.8778133 7.6900172 5.8363361 3.3516154
5.2072921 7.5965924 5.8370676 3.9318023
5.4507222 7.6558828 5.8414297 4.3115983
5.8461981 7.6782804 5.8229132 4.2956429
6.0576272 7.5658107 5.7765913 4.2967458
7.1172805 7.6557069 5.8227234 2.4343879
7.2769051 7.5808907 5.8200345 3.7403388
7.6546969 7.6577716 5.8213186 3.5981538
7.9127579 7.7341928 5.8187556 3.1469097
8.2043791 7.6206269 5.8243413 4.0682139
8.4507961 7.6635866 5.8003511 3.6871367
8.873642 7.6568375 5.8163753 3.6545551
9.160162 7.6693168 5.8164001 4.2837172
9.4066563 7.6148262 5.8096681 4.8184686
9.6955643 7.6032352 5.7933426 3.8510022
9.9681063 7.6766081 5.7948499 3.6393421
10.299078 7.6990199 5.780755 3.4583335
10.6134 7.6395059 5.787642 4.2266669
10.898506 7.6867557 5.8013272 3.0833333
12.133443 7.6189871 5.8073344 2
12.406231 7.6861014 5.7887831 3.4166667
12.729342 7.5724583 5.7647576 4.0833335
13.002304 7.5975127 5.7747054 4.3958335
13.283376 7.7206368 5.7678747 3.6386719
13.65976 7.6299324 5.7948461 3.4222221
13.885465 7.6035209 5.8092294 2.9520833
14.252682 7.5968065 5.7970181 2.875
14.445346 7.5891047 5.7952814 3
-12.195541 8.0257463 5.8724098 3.6666667
-11.831424 7.9710226 5.8726721 3.8
-11.644373 7.9793296 5.8287072 3.5
-10.234062 8.0255318 5.8665795 4.0972223
-10.047997 7.8882618 5.8690906 4.1361108
-9.6657581 7.9267974 5.8625202 2.6427083
-9.4196949 7.9137764 5.8991737 3.0527368
-9.1204233 7.8679886 5.881846 4.5634017
-8.8211308 7.9670386 5.863184 4.3342109
-8.5206213 7.9386535 5.8567176 4.467473
-8.2042179 7.9857368 5.8528576 4.0639887
-7.9653912 7.9025388 5.8445578 4.2906275
-7.6761436 7.9324522 5.8292279 4.031723
-7.3845458 8.0212507 5.8283348 4.2735338
-7.0710101 7.8504448 5.8363214 4.6510482
-6.8288288 7.9890542 5.848804 2.9226277
-6.4317708 7.9438396 5.831295 3.0892315
-6.1765618 7.8977547 5.8313336 4.8827696
-5.8498459 7.9613309 5.827949 4.3508916
-5.5155973 7.9537439 5.8213325 4.1848412
-5.2422786 7.919899 5.8234863 4.1947808
-4.9325967 7.9486237 5.8232188 4.306469
-4.6133523 7.9763508 5.8257408 3.9910195
-4.3277574 7.9494324 5.8254046 4.3599553
-4.0615444 7.9283967 5.8292828 4.2642403
-3.8164985 7.9685516 5.8269796 3.7083333
-3.4601467 7.8582726 5.8350358 3.7611797
-3.2041051 7.8815079 5.8411827 3.66558
-2.7967024 7.9686022 5.8367691 3.4446039
-2.4498482 8.0020342 5.8472648 3.7163906
-2.3731828 7.9604149 5.8570557 2.5833335
-1.9363022 7.9243298 5.821115 4.7651939
-1.7378757 7.9016967 5.8521519 4.3638058
-1.3168191 7.8898005 5.8422647 4.9469457
-1.0651969 7.9791498 5.8351345 4.0946536
-0.75865203 8.0224524 5.8257666 3.2415805
-0.43148628 8.0671797 5.8228698 2.7643502
-0.18417326 7.947485 5.823812 3.8140836
0.16387054 7.9273505 5.8160968 4.4671068
0.40202308 7.9164963 5.822113 4.2239785
0.79824138 7.8595262 5.8151784 3.8821456
0.99313903 7.9186668 5.8214741 4.1951218
1.341342 7.8682203 5.829205 4.1709404
1.6023295 7.8995781 5.8236275 3.5080411
1.9540602 7.8993454 5.8363662 3.7227113
2.2232845 7.974822 5.8366222 3.1324518
2.613239 7.9393244 5.8285456 3.1817374
2.7931852 7.8981619 5.8336353 3.7553854
3.1411645 7.8929706 5.8309379 4.2712569
3.4157948 7.873816 5.8369188 3.3975484
3.8337698 8.0087204 5.830965 3.2803719
4.0624709 7.9094257 5.8409185 2.9421697
4.3610854 7.9123402 5.8360019 4.4309535
4.6280136 7.8626623 5.8244853 4.6250305
4.9487743 7.978416 5.8247967 3.4559758
5.1777558 8.0056448 5.8257995 2.799135
5.4830685 7.8390055 5.826252 2.5137763
5.9198799 7.9497404 5.813653 3.7374687
6.0428858 7.9408484 5.7636127 4.2886539
7.1033101 7.9280052 5.8107314 3.4156964
7.4073553 8.000308 5.812274 2.8212516
7.7026124 7.9226937 5.8157272 3.0683548
7.972404 7.8786058 5.8040152 3.6520166
8.2614317 7.956213 5.7962193 3.8162539
8.4629345 7.9206486 5.7989864 2.9037037
8.9022188 7.879375 5.8042231 3.4994121
9.1600389 7.8992028 5.7846627 3.6871583
9.4056606 7.9351854 5.787714 3.7831602
9.6892815 7.9319301 5.7765369 4.6289315
10.024714 7.9354568 5.7593703 3.9823635
10.339865 8.0332193 5.7571135 4.3080359
10.61098 7.9155397 5.770093 3.6333337
10.89503 7.9934106 5.7746768 2.5
12.14221 7.868082 5.7727413 3.75
12.494301 7.9702711 5.7237635 3.75
12.793336 7.8715301 5.7507644 3.6666667
13.041533 7.9762683 5.7478313 3
13.611889 7.9790096 5.7826867 3.1000001
13.975472 7.9828839 5.7719741 3.3333333
14.31638 7.8917818 5.7771664 2.8333335
-10.341153 8.2056332 5.8539257 4.2256947
-10.077666 8.2343702 5.8717904 3.9305553
-9.7268906 8.2239609 5.8722525 3.3843055
-9.4540625 8.2433319 5.8739038 3.9850414
-9.1616516 8.3764887 5.8729291 5.1953063
-8.8093805 8.1697502 5.8712311 3.5876737
-8.4918251 8.1878242 5.8628659 3.7890654
-8.217824 8.2935953 5.8669124 3.5514996
-7.9167395 8.2307549 5.8400078 3.9110725
-7.628089 8.3267441 5.8395052 4.3015103
-7.3929391 8.1809759 5.8298326 3.5937407
-7.0992317 8.1938257 5.8329201 3.7977431
-6.7677836 8.2944536 5.8638892 2.8646917
-6.4845886 8.2295046 5.8672791 3.6862161
-6.1723018 8.1735487 5.8421788 3.9912775
-5.8214073 8.2987337 5.8525209 3.7746284
-5.5600929 8.2481461 5.846251 4.6728878
-5.2270517 8.229085 5.8299408 3.9619508
-4.947844 8.3150988 5.8292794 3.9531689
-4.7083492 8.1919308 5.8338513 4.9183536
-4.3866482 8.266921 5.8531322 3.707706
-4.0218239 8.2234278 5.836616 4.2957177
-3.8147535 8.2740383 5.8607349 3.25
-3.42659 8.2488499 5.8450794 3.4000349
-3.1060703 8.2475042 5.859396 3.544138
-2.8452427 8.2559214 5.8526187 3.9295428
-2.5594974 8.2607288 5.8623652 3.2599921
-2.3724432 8.218298 5.8686543 2.5
-1.9547429 8.238512 5.7943487 4.6017342
-1.6707067 8.3233109 5.8558116 5.0025158
-1.3809571 8.2997751 5.8499565 4.4912014
-1.0584604 8.2154484 5.8465948 4.2278895
-0.77262264 8.2305708 5.8441534 3.4593761
-0.44679844 8.2190351 5.8402576 3.3374629
-0.18705195 8.2646866 5.8334389 4.3320913
0.12894681 8.2114296 5.8356509 4.2409201
0.46550232 8.2333889 5.8221502 3.9890342
0.75126988 8.3313293 5.8306503 4.1280022
1.0641792 8.2393837 5.8203449 3.5474038
1.3981074 8.2341204 5.8298821 3.4653699
1.6629171 8.3361111 5.8328009 4.5863543
1.9157121 8.2695236 5.8316884 3.3780456
2.1842463 8.2512217 5.8249888 3.6175385
2.6568103 8.2997665 5.8432994 4.2631912
2.8778217 8.2897825 5.8356028 3.8526344
3.113416 8.178916 5.8217807 2.4703703
3.4870071 8.3308086 5.8183804 3.6227343
3.8603747 8.266263 5.8322411 3.8204911
4.0901127 8.1910467 5.8284159 4.3754201
4.2918749 8.2055044 5.8329649 3.6834302
4.6585798 8.2328625 5.8337545 3.5695481
4.9281397 8.3363342 5.8223991 3.5302455
5.2406063 8.2420712 5.8205242 3.2136822
5.4871683 8.3252993 5.8207898 4.5581198
5.9109349 8.3002939 5.8169265 3.1723588
6.0727768 8.2652245 5.8156037 4.0308638
7.0940256 8.2443886 5.7995348 3.1619048
7.3232718 8.2934809 5.8202424 3.5891998
7.5963788 8.1848736 5.7991505 3.1459823
7.9728351 8.3458233 5.8090148 4.3036776
8.1927805 8.2831125 5.8156877 3.7723958
8.5614195 8.2159138 5.7932854 3
8.8575907 8.1955233 5.8059044 3.5290124
9.0937862 8.2043171 5.7629318 3.0892859
9.4800482 8.2302732 5.7853012 3.0092592
9.7280436 8.3152504 5.7972794 4.1370368
10.089739 8.2585211 5.7766871 3.84375
10.265619 8.2327805 5.7611408 5.015625
10.639747 8.2480898 5.7605724 3.2222223
10.88795 8.2037563 5.7702889 3
11.156947 8.2166586 5.7760186 3
11.415981 8.2036362 5.8041587 3
12.88307 8.271553 5.775249 4
13.478098 8.3378115 5.7882209 4
13.589748 8.2814369 5.8010416 2.5
14.066017 8.3253899 5.7937608 3
14.204748 8.1962395 5.7836924 3.5
14.41389 8.2119179 5.789217 4
-10.232099 8.4325352 5.8313637 4
-10.078672 8.4319592 5.8137426 4.625
-9.7017231 8.4250336 5.8627434 5.692708
-9.4363823 8.4393072 5.7870483 6.9987655
-9.0909519 8.4501934 5.8306351 6.8298612
-8.847024 8.4393339 5.7754765 6.5619569
-8.6166372 8.441926 5.7606649 7.879427
-8.230216 8.4416313 5.8166475 6.6156621
-7.8916392 8.4357252 5.8282819 6.7195106
-7.5857682 8.4388266 5.8100142 6.7058415
-7.3077507 8.463172 5.7893071 7.5506258
-7.0813074 8.4559011 5.775106 6.0138993
-6.8402195 8.4668083 5.750761 6.5596709
-6.5030541 8.4529238 5.8008041 7.1199365
-6.1543894 8.4714928 5.7924657 7.8122015
-5.8041468 8.4748869 5.7619486 7.669076
-5.5355501 8.4498692 5.8435965 6.5514593
-5.2324562 8.4682617 5.8034644 8.2609711
-4.990293 8.4618778 5.8093452 7.3553615
-4.675776 8.4754734 5.7996316 8.5791969
-4.3129392 8.4632645 5.7667923 7.7723336
-4.1423302 8.4700155 5.8465667 6.6715579
-3.8309093 8.4633007 5.8221745 7.4694443
-3.4253883 8.4574671 5.7864861 7.4369793
-3.1742015 8.4721804 5.7828422 7.6033497
-2.8276207 8.4590101 5.8049517 6.6092792
-2.483948 8.4758377 5.8441129 3.8700905
-2.3458176 8.4559059 5.7939682 4.125
-1.9429759 8.4522457 5.796339 5.576375
-1.6904217 8.4650497 5.776824 6.9505324
-1.3504336 8.4947586 5.7540669 7.9648724
-1.0343421 8.4728546 5.7696753 7.3822494
-0.79599738 8.470336 5.7754641 5.7093015
-0.38857514 8.4678478 5.7784262 7.4146261
-0.13047436 8.473341 5.7735009 7.8665633
0.14362475 8.4726362 5.7802792 7.8072047
0.43150204 8.4530506 5.7909966 6.4253793
0.704238 8.4466867 5.7957025 6.6685452
0.99136984 8.461442 5.7884035 6.6984591
1.3515058 8.4423809 5.8059988 6.4949999
1.6976964 8.4615154 5.7645464 7.0598531
1.9430939 8.467432 5.7674565 6.2903538
2.2336395 8.447072 5.7860222 5.8120108
2.5673273 8.449605 5.7583442 4.4190006
2.808836 8.4346457 5.8155804 4.551569
3.2033501 8.4629488 5.7386761 5.8068056
3.4105945 8.4552183 5.7255311 6.3733087
3.7316215 8.4580984 5.7825208 6.2060218
4.0671625 8.4452467 5.8137035 5.0148721
4.3360014 8.4633627 5.7645121 6.1351256
4.6385131 8.4587727 5.7837076 6.6072974
4.9340463 8.465621 5.7570891 6.1280904
5.1924272 8.4510822 5.7663536 5.8158836
5.4432392 8.4592295 5.7615314 5.1017075
5.8553977 8.4756632 5.7817802 5.6394677
6.0720606 8.4396038 5.7691641 5.7781248
7.1087112 8.4722729 5.7636619 5.4416666
7.3735752 8.4857597 5.7303519 5.9971299
7.6620507 8.480504 5.7530651 4.6836667
7.9353561 8.4532251 5.772747 4.9111114
8.2664919 8.4862003 5.7591753 5.48
8.5083828 8.4931068 5.7685509 4.25
8.803462 8.4948578 5.7472534 4.5
9.0792503 8.4739332 5.7838631 3.5
9.4271812 8.4773331 5.7628784 4.9444447
9.8486671 8.4850693 5.7691908 4.5
10.01186 8.4963961 5.7613606 5.5416665
10.380564 8.5222702 5.7474365 3.75
10.673632 8.4229183 5.7787957 2.75
10.873156 8.4667263 5.7682161 3.8571429
11.298235 8.4880552 5.770915 3
13.156007 8.5431166 5.724843 3
13.755614 8.5174675 5.7316608 3
13.967171 8.4217901 5.7620735 3
-10.210781 8.7576752 5.7635074 3
-10.018403 8.9374723 5.8667455 4
-9.7753582 8.9078751 5.8360386 3.0833333
-9.4060698 8.9217701 5.838769 3.25
-9.2413425 8.9320793 5.8434739 2.5
-8.8863459 8.9351892 5.8125744 3.8
-8.5111065 8.8922806 5.8124743 3.75
-8.1667862 8.8985863 5.828433 3.825
-7.9790764 8.9155159 5.8203325 4.25
-7.6491728 8.8978062 5.7874637 3
-7.3267784 8.9148636 5.8111129 3.3125
-7.0904822 8.9289074 5.811152 3.6666667
-6.7893486 8.8920364 5.8190107 3.5
-6.3609142 8.9196625 5.8140035 3.4444444
-6.1117516 8.9699354 5.8106833 2.8625
-5.8393245 8.8966227 5.8192821 3.5555556
-5.6045094 8.9635601 5.8043156 3.3666668
-5.2299972 8.8949776 5.803565 3.75
-4.8959618 8.9184484 5.8059883 3.9027779
-4.661387 8.9515629 5.7976952 3.0833335
-4.3775849 8.9203348 5.806087 4
-4.0679603 8.9294987 5.8002486 3.7
-3.7968218 8.8881559 5.7918763 2.6666667
-3.5282407 8.9418335 5.8063364 3.75
-3.1707194 8.899291 5.8114014 3
-2.8274679 8.8819809 5.803956 3.5
-2.5580289 8.9310932 5.808465 2.5
-1.8153207 8.8841801 5.8047376 3.5
-1.710027 8.9124947 5.7798738 3.5
-1.3631557 8.9433537 5.7604136 4.896667
-1.0230691 8.9564037 5.7797775 4.0370369
-0.77431589 8.9063606 5.7875018 4.125
-0.38904095 8.9619112 5.789762 3.3888891
-0.13599291 8.9437485 5.7870078 4.125
0.17703426 8.971324 5.7918305 3.1574075
0.47001868 8.9551497 5.7807574 3.5104167
0.74025989 8.9497585 5.7704306 4.6555557
1.0351506 8.7804995 5.7367516 4.0385418
1.3286228 8.9105177 5.7691054 3.8333333
1.5948702 8.9108019 5.7690125 3.3333333
1.9951162 8.9277887 5.7859592 2.75
2.1963027 8.9708252 5.7809734 3.71875
2.4298673 8.8436308 5.7848091 3
2.8765798 8.9321041 5.7960443 2.8125
3.1779995 8.9387436 5.7841029 3.4166667
3.5116348 8.9748755 5.7787261 3.9027779
3.7902741 8.9522343 5.7662392 4.4877977
3.9955354 8.9401855 5.7736187 4.7619047
4.3297491 8.9577141 5.7798944 4.016314
4.6827359 8.9258394 5.757009 3.7993824
4.9191055 8.9573746 5.7776527 3.4722223
5.2104163 8.9554586 5.7657156 3.0138888
5.5291615 8.9149876 5.7849727 2.5
5.8995447 8.8732805 5.7635388 3
6.0578985 8.9546261 5.7513332 3.4000001
7.1919703 8.9169884 5.7565942 3
7.3410912 8.9442024 5.7418275 3.6666667
7.592206 8.9504089 5.7519236 3.5
7.9209156 8.9319954 5.7543359 2
8.1674671 8.9258013 5.7687006 2.5
8.4804726 8.8760185 5.745533 2
8.9012852 8.9058151 5.758359 3
9.0604124 8.8971033 5.7590156 3.6666667
9.5043221 8.9555101 5.7323375 2
10.291746 8.8935452 5.7265401 2
-10.229767 9.1024647 5.857007 3
-9.7359962 9.1424494 5.8143129 3.5
-9.4864521 9.1639032 5.8151951 3.2111111
-9.1491318 9.1967878 5.8082795 3.3333333
-8.827383 9.0362139 5.8074422 3.4166665
-8.5305891 9.1448088 5.8087764 3.074074
-8.1421566 9.1540184 5.7881403 4.3125
-7.9030495 9.0431728 5.8081307 3.488889
-7.6563745 9.1376028 5.7853208 3.2301588
-7.3364668 9.1347179 5.7911687 3.6533332
-7.0849166 9.097456 5.7993722 3.7333331
-6.6753669 9.088768 5.7974095 2.9583333
-6.4449306 9.189764 5.7867413 3.1818182
-6.0825472 9.1014719 5.7943192 3.3333333
-5.8575749 9.1584044 5.7839141 3.9583333
-5.5441871 9.1388769 5.7939782 3.7916667
-5.2615571 9.0683918 5.8016577 3.2375
-4.9481602 9.1268787 5.7872648 3.6145833
-4.6048093 9.0675364 5.7842636 3.5
-4.3422179 9.0934772 5.7978768 3.6925926
-4.0139332 9.1363745 5.7914004 4.2909093
-3.7876143 9.2660627 5.7970166 3
-3.5327783 9.1658401 5.7829008 3.5
-3.2468231 9.0919533 5.7882028 4
-1.885332 9.0980234 5.7961864 4.625
-1.5859714 9.1123962 5.7782745 4.0625
-1.3535922 9.1022739 5.8030486 3.9541669
-1.0902907 9.063406 5.7982602 5.0263891
-0.76598012 9.1061239 5.7958684 4.2333331
-0.46402982 9.0990067 5.7862358 3.2214286
-0.1468593 9.148675 5.7774625 3.9061728
0.16074587 9.1194639 5.7717767 4.3537412
0.4663986 9.1388988 5.7845001 4.3942857
0.79681551 9.1732035 5.7789564 4.1959262
1.1058486 9.17523 5.7753916 4.9631748
1.3911192 9.189888 5.7696075 4.2378473
1.6265157 9.2064266 5.7549376 3.2916667
1.9378277 9.1558599 5.7662406 3.3333333
2.2158372 9.0679483 5.7676635 3.2
2.5588341 9.1352882 5.7917109 2.5
2.8519766 9.1772299 5.7645392 3.9196429
3.1308172 9.1429167 5.7503514 4.673337
3.4327049 9.1297865 5.7507367 5.0649223
3.7376266 9.155468 5.7474298 4.4828706
4.0714054 9.1143894 5.7417831 5.4555554
4.375967 9.1560745 5.758985 4.497685
4.6232657 9.1450682 5.7609653 3.8710318
4.9765153 9.0982752 5.7436876 4.2641973
5.1828957 9.2097597 5.7560658 3.3550003
5.504427 9.1994591 5.7644444 2.6875
5.8395576 9.1070652 5.7659812 2.375
6.0270939 9.1442785 5.7315445 4
7.1066675 9.0384502 5.7900643 3
7.3546042 9.1407852 5.7485285 3.4000001
7.6984243 9.1474133 5.7497563 2.5
7.957655 9.1475391 5.754518 3.1666667
8.1974182 9.049799 5.7277622 3.5
8.4874754 9.2094679 5.7481151 2
8.9761276 9.1360922 5.732049 4
9.2387743 9.0556936 5.7305422 3.75
-9.7927847 9.4588404 5.7821536 3
-9.3306208 9.3519297 5.802412 2.5
-9.0662699 9.5068951 5.8042226 2.5333333
-8.7336216 9.32689 5.7812815 4
-8.4347439 9.3537846 5.8023367 2.5
-8.1871557 9.4039879 5.7606525 3
-7.9198737 9.3586073 5.7847633 2.875
-7.441937 9.3447762 5.7829118 3.6666667
-7.0956602 9.3911514 5.7802763 3
-6.6815495 9.4229584 5.7769227 3
-6.4460359 9.3844099 5.7687063 3.2
-6.1737938 9.3927412 5.7705326 3.625
-5.8400607 9.4660044 5.7658353 3.5714285
-5.582396 9.4629173 5.7680888 2.8888891
-5.2708321 9.4134245 5.7724934 3
-4.9737506 9.3897505 5.7847328 3
-4.6607451 9.4315443 5.7823243 3.2
-4.2292671 9.5660448 5.766881 3
-4.0198822 9.4411077 5.7732272 3.6756945
-3.7329009 9.5448771 5.761888 3.3333333
-3.4132276 9.5733242 5.7516627 3.4745369
-3.2347178 9.5605936 5.7544737 3.46875
-2.8954542 9.5664511 5.7662263 3.8506947
-2.6200061 9.5533237 5.7623024 3.5833335
-1.8915148 9.569129 5.7599316 3.1984375
-1.6601794 9.4296522 5.7683096 2.21875
-1.3443438 9.4220972 5.7612796 3.375
-1.0872273 9.4732742 5.7631011 3.7098763
-0.78528404 9.4700756 5.7500033 3.8888891
-0.44397485 9.4281492 5.7629447 4.3333335
-0.16297904 9.4551334 5.7531528 3.375
0.11909099 9.4555588 5.7568922 3.6500001
0.45148873 9.4418716 5.7438855 4.4888892
0.7666871 9.3985825 5.7430463 3.75
1.0507368 9.4098177 5.7471681 4.3214288
1.3618089 9.4158344 5.7466125 4
1.6573645 9.3969717 5.7502494 3.45
1.8650237 9.3567934 5.738163 3
2.6158571 9.4486179 5.7482314 2.7222223
2.8305385 9.4360914 5.7366958 3.3039999
3.1537411 9.4337988 5.7316937 4.3333335
3.4881027 9.4142256 5.741869 4.625
3.775737 9.4446068 5.7477589 4.375
4.0503068 9.4037018 5.742331 3.5694447
4.3346882 9.3610649 5.7496433 3.5625
4.5598321 9.5222197 5.740705 3.3611109
4.856874 9.3951454 5.74159 3.8611114
5.3320942 9.4616203 5.745883 4
5.5056086 9.4776211 5.7469573 1.75
5.8558812 9.4191618 5.7579651 3.1111109
7.4721661 9.3143215 5.7251768 3
8.2071848 9.3429937 5.7229271 3
-6.3152275 9.6540852 5.7484646 3
-5.3235197 9.6452885 5.7494831 3
-4.2433095 9.8236752 5.7373452 2.125
-4.0351377 9.6911955 5.759922 3.1738822
-3.6770029 9.8105316 5.7555003 3.2699316
-3.4615457 9.8098783 5.7513123 3.375793
-3.1529038 9.7793913 5.761692 3.1273494
-2.8665192 9.7588739 5.7580447 3.5271552
-2.6509585 9.7700758 5.7595353 3.5770638
-1.9543943 9.796216 5.7524624 4.2407165
-1.6424334 9.8257847 5.7531395 3.5780358
-1.3362657 9.6454182 5.7561226 3.3298829
-1.0880111 9.6495228 5.7584457 3.7504659
-0.77314603 9.7296734 5.7751913 2.7690396
-0.45509455 9.7800856 5.7795238 4.2853699
-0.15815912 9.6848421 5.7548943 3.165374
0.18606086 9.6643553 5.7442455 3.4652872
0.46663809 9.7604723 5.7573657 3.5293937
0.74328333 9.7733259 5.7327347 3.8094323
1.0558827 9.7695951 5.735621 3.7826953
1.3320434 9.7769852 5.7347355 2.9139583
1.629523 9.7991047 5.7445049 3.6708617
1.9389925 9.7031746 5.7487745 2.7044497
2.2289846 9.7763262 5.7449818 2.9948454
2.5385847 9.8108168 5.739511 3.101826
2.8073273 9.8130322 5.7648959 3.258889
3.163939 9.7696505 5.7407126 3.824415
3.4285069 9.7647314 5.7479405 4.5915089
3.7305408 9.7212877 5.7670755 3.926373
4.1187296 9.8523283 5.7607489 4.7494702
4.3129163 9.7983046 5.7791786 3.8830254
4.6749444 9.8517885 5.7397513 4.4865375
4.9389505 9.808507 5.7646294 4.0520124
5.2285132 9.704381 5.7885957 2.8750086
5.5424986 9.8278866 5.7323971 3.7613933
5.8349991 9.8522663 5.8246469 4.1984663
6.05158 9.7734032 5.7955823 3.6682098
7.0538864 9.8106642 5.7564392 2.3829861
7.3761215 9.8587732 5.7380195 3.2035322
7.6139221 9.7607288 5.7507906 3.2330403
7.9319329 9.7629681 5.7221017 3.0679011
8.2303867 9.7779236 5.7117748 2.7916667
8.6396379 9.7722368 5.7173419 3.8333333
8.8500328 9.755064 5.7109604 3.4814816
9.1543064 9.807189 5.7798333 3.75
9.4591341 9.7462664 5.7166877 2.6712964
9.6918879 9.8188124 5.710783 2.8333333
10.060071 9.8054924 5.8481326 3.2881944
10.407922 9.7508612 5.7145557 3.3333333
10.69762 9.7458553 5.7071972 3.5833333
10.996174 9.8246269 5.7162437 3.25
11.248201 9.8129101 5.7080441 3.875
11.429022 9.7702188 5.7161131 3.5
-9.2809477 9.910697 5.7291203 5
-8.9853649 9.9403696 5.7377739 6
-6.7053108 9.9852438 5.7233491 6
-6.5663457 9.9740047 5.7144156 7
-4.3060603 9.9478683 5.7628703 1.3313057
-4.0287642 9.9462729 5.7301908 1.3333334
-3.6619456 9.9561424 5.7425847 5.2456017
-3.4166822 9.9536762 5.7167983 5.5121188
-3.1404755 9.9663801 5.734426 5.7391028
-2.8209765 9.9652767 5.7430782 4.7174778
-2.5771017 9.9931421 5.741189 6.26789
-1.9676661 9.9706783 5.7221608 4.8541722
-1.6856432 9.9563522 5.7378473 5.4569178
-1.3339111 9.9504433 5.7444086 5.8386531
-1.0404156 9.9525089 5.7637792 5.7410641
-0.77143323 9.9904032 5.7409997 4.4952159
-0.42080522 9.9726028 5.7278481 5.8868122
-0.13334098 9.9578457 5.7467113 4.8570809
0.14649312 9.9578457 5.7559991 4.6903877
0.41890439 9.9622126 5.722003 4.9868164
0.7523362 9.9477978 5.7494383 5.2526484
0.97975034 9.9562654 5.7176285 4.5267687
1.4417611 9.9685745 5.7335739 4.6846356
1.6862091 9.9885511 5.7239308 4.5245709
1.9043275 9.9510622 5.7269244 4.9306202
2.2357039 9.9905624 5.7233963 3.4930351
2.5826049 9.9542131 5.7273355 5.8740449
2.8649559 9.9527006 5.7564292 3.5628903
3.1712551 9.9304733 5.750555 2.3888888
3.412055 9.9293861 5.7519674 4.6375828
3.7379162 9.9541426 5.7178812 5.3217707
3.9599445 9.9490499 5.7585635 5.1294136
4.3427677 9.9482422 5.7263918 4.9020834
4.6375794 9.9238062 5.7539077 5.1075001
4.8647084 9.9356031 5.7251897 3.9774628
5.2202034 9.9506769 5.7110996 4.7034502
5.5959511 9.960866 5.7377138 3.6892362
5.808176 9.9618778 5.7410793 4.1590252
6.0684724 9.9421587 5.730042 4.0833335
7.0635767 9.9689264 5.7256899 4.3457031
7.3427887 9.9586782 5.7240944 4.9218106
7.6084499 9.9363098 5.7283306 3.5185184
7.9153957 9.9291468 5.7540922 3.828125
8.2900314 9.9289207 5.7561975 3.625
8.8648949 9.9486895 5.7048731 4.5
9.0800219 9.9491634 5.7443838 4.270833
9.5134621 9.9487972 5.7128763 4
9.8103628 9.9124498 5.7950644 5
10.080971 9.9320946 5.7133703 3.8333335
10.256519 9.9565392 5.7118506 4.125
10.559256 9.9212399 5.7368078 4.25
10.949205 9.9365902 5.7111111 4
11.205259 9.9680634 5.7040572 4
11.955671 9.9710779 5.719398 2
-10.348116 10.481842 5.7295561 3.5
-9.9563046 10.389068 5.737431 4
-9.6639385 10.43097 5.7295403 4
-9.5165014 10.415737 5.7185097 3.5
-8.8661089 10.430726 5.727695 4
-8.2571974 10.41751 5.7238598 3
-7.6423197 10.384677 5.7260723 4
-7.3339596 10.435047 5.7189302 4.5
-6.624001 10.406377 5.7368751 3
-6.4727297 10.40379 5.7058272 3.5
-5.9329686 10.395851 5.7147079 4.1666665
-5.6880808 10.472055 5.7077198 3.5
-5.1113796 10.453924 5.7108912 5
-4.5567179 10.390517 5.7167058 3.0833335
-4.415813 10.358959 5.7100372 3.5
-3.9694364 10.398358 5.7405934 2.5138888
-3.7018054 10.430553 5.7266083 3.5201824
-3.4048615 10.452274 5.7285519 3.0968533
-3.2146597 10.46014 5.7119241 3.8590064
-2.8622761 10.434133 5.715353 3.9202845
-2.5951967 10.405343 5.7476692 3.1481483
-1.8781264 10.434258 5.7182879 4.0292726
-1.6794075 10.446583 5.7351866 3.9176118
-1.3453174 10.420252 5.7244205 4.3604603
-1.0769632 10.403118 5.7385454 4.5013022
-0.73356438 10.421457 5.7043982 2.75
-0.50769013 10.439615 5.7344885 3.5034723
-0.11756895 10.410425 5.7318239 5.015625
0.1356526 10.370903 5.7721672 4.052083
0.47832409 10.414843 5.7012191 3.375
1.0631627 10.416512 5.7056584 3.25
1.284611 10.413662 5.7031293 4.6666665
1.6398096 10.40598 5.7181373 4.166667
2.2697344 10.456066 5.7092924 2.75
2.5341852 10.391017 5.7049155 3.3333333
2.8693714 10.437746 5.7266889 3.5
3.1557941 10.414145 5.7438416 3.4322915
3.3733253 10.425629 5.7513046 3
3.8742316 10.430593 5.8001366 3
4.0222387 10.342188 5.7926497 3
4.3684044 10.409538 5.7303939 3.3333335
4.7217565 10.41076 5.805541 4
5.0277314 10.42196 5.7094407 2
5.1211514 10.363725 5.7008839 3
5.6427746 10.411199 5.7025795 3.5
5.7879639 10.388084 5.7265329 3
6.0487137 10.355825 5.7291684 3
7.2411938 10.402039 5.7294755 4
7.9043388 10.45978 5.7229447 3
8.6854954 10.375437 5.921329 3
-9.9527683 10.733836 5.7013412 3
-9.8391285 10.620575 5.7207313 3.5
-9.5379496 10.607502 5.7292624 3.5
-9.0725594 10.666731 5.7183495 4
-8.7959766 10.652237 5.7297006 4
-8.6452551 10.617468 5.7141905 3.5
-8.1052866 10.558217 5.7139883 5
-7.9592085 10.601306 5.7100649 4
-7.3117485 10.637432 5.7102103 3.25
-7.0859022 10.57719 5.7135239 4.5
-6.4110365 10.56362 5.7083902 3.5
-6.1909752 10.526405 5.7157364 4
-5.5198832 10.53001 5.7248282 3
-5.1696262 10.625967 5.7107291 3.5
-4.5509429 10.63221 5.7267747 4
-4.3695631 10.5894 5.7270889 3.3571429
-4.0231228 10.636757 5.7295237 3.1944444
-3.7584984 10.554236 5.72683 3.3333333
-3.4646466 10.600446 5.7147737 3.8055556
-3.1239815 10.656479 5.709466 4.4241667
-2.8177435 10.596616 5.7161827 3.6413949
-2.6006393 10.636584 5.7161374 3.0694447
-1.9307508 10.623828 5.7202377 4.3950891
-1.6786665 10.549152 5.7053361 3.7278645
-1.3521141 10.579485 5.726047 3.875
-1.1057498 10.596893 5.7178068 4.1964283
-0.8204596 10.693357 5.7162848 1.5
-0.48864257 10.580648 5.7096543 4.375
-0.17926097 10.630907 5.7065964 4
0.059979524 10.649798 5.7044015 3.5
0.64260262 10.686743 5.7054725 4
1.1018065 10.631119 5.7042227 3.25
1.3930302 10.663908 5.7109356 3.5
1.9886171 10.721357 5.7306347 4.5
2.26594 10.598593 5.7250652 2.5
2.6286476 10.639698 5.7354798 3.6666667
2.826515 10.630078 5.7441993 3.1666667
3.167001 10.677722 5.7281442 3.1666667
3.4463339 10.545981 5.729702 3.6666667
3.6845582 10.643286 5.8763523 3
4.0921736 10.623091 5.756855 4.5
4.2743268 10.62586 5.7910414 3.5
4.6270504 10.559236 5.769464 3.3333333
4.9711037 10.76535 5.701098 2
5.2263565 10.659424 5.7911625 3.5
5.5184183 10.667926 5.7044673 2.8125
5.7860889 10.610372 5.7153897 3.5
6.0021162 10.726097 5.7192111 3
7.0886307 10.561951 5.7199583 3
8.274724 10.529926 5.704648 3
8.7135229 10.625236 5.7278872 4
9.4813061 10.620522 5.8892732 4
-10.143286 10.806544 5.7237535 3
-9.85919 11.005842 5.7071557 3
-9.3556528 10.941779 5.717392 4.25
-9.2629013 10.993719 5.7206283 3.5833333
-8.912962 10.856978 5.7032008 4
-8.5457516 10.838172 5.7300892 2.75
-8.286581 10.966291 5.7107806 3.75
-8.0105782 10.931198 5.7099228 3
-7.6474695 11.0235 5.7133908 3
-7.2928224 10.990743 5.7107458 3
-6.173965 10.96646 5.7016873 4
-4.5557923 10.886131 5.7254505 3
-4.2845049 10.892303 5.7118492 4
-4.0899076 10.976177 5.7168503 3
-3.6826468 11.073041 5.71029 2
-3.4100046 10.847243 5.7132659 3.8333333
-3.2121658 10.945586 5.713655 3.1666667
-2.8457427 10.868093 5.7215075 3.5
-2.5093012 10.985077 5.7141008 1.8333334
-1.9518652 10.919543 5.7269454 3.1666667
-1.6717241 10.926333 5.705606 3.2
-1.3899848 10.946844 5.7063332 3
-1.0017388 10.819039 5.705256 3
-0.62149817 10.840745 5.7129173 4
-0.41076991 10.833465 5.7159209 4
0.48886287 10.934082 5.7037945 2.5
1.7809876 10.892758 5.7085342 3
1.888669 10.911137 5.7188888 2.6666667
2.5643098 10.923994 5.7121267 3.125
2.8694103 11.037381 5.7046676 3
3.0925143 11.076097 5.7172532 3
3.915725 10.889987 5.7742853 3
5.6164312 10.842853 5.7085271 2
5.8792195 11.015018 5.7176671 4
7.4142437 10.810725 5.7176738 3
8.1795654 10.922167 5.7114592 4
-9.9552717 11.280478 5.7095103 3
-9.6732368 11.323264 5.7086182 4
-9.488575 11.245667 5.7129745 5
-9.1005287 11.219467 5.7368279 3.6666667
-8.7741814 11.271818 5.7229338 4
-8.5975227 11.326511 5.7114315 5
-8.2558613 11.137012 5.7084494 4
-8.0438652 11.227397 5.7193933 4
-7.5219293 11.295227 5.7344003 3
-7.4199152 11.274833 5.734086 3
-6.4925466 11.380928 5.7100196 4
-5.9764876 11.250522 5.7307558 3
-4.591598 11.195337 5.7006793 3
-4.3911095 11.285277 5.711731 3
-3.6974514 11.199262 5.713419 4.5
-3.5365267 11.399186 5.7018142 5
-3.1578715 11.251565 5.7196031 3.6666667
-2.8621812 11.2445 5.7133918 3
-2.649961 11.240181 5.7040062 3
-1.9231753 11.31918 5.7073307 4.375
-1.2875839 11.199224 5.7074943 3.3333333
-1.0854418 11.291754 5.7086782 3
-0.68203127 11.334954 5.7120419 1
0.15973423 11.310349 5.7107344 4
0.39707887 11.389792 5.7169118 3
1.7473516 11.209028 5.7051349 3
1.8511561 11.392536 5.7020745 5
2.5758631 11.386369 5.7236104 5
-9.3647451 11.426726 5.7005334 5
-7.1667051 11.43483 5.7158661 4
-6.1085896 11.428201 5.7084351 5
-5.7432737 11.412024 5.7041211 4
-4.113482 11.436725 5.701242 3
-2.8973343 11.445949 5.7205825 7
-0.035973769 11.410714 5.7139497 3
0.16356272 11.415872 5.711689 4
0.46309346 11.410685 5.7093515 3.5
3.3846033 11.400915 5.7527566 6
1.3663883 11.912421 5.7293177 3.5
2.9562211 11.958978 5.8150811 4
3.8957405 11.94474 5.8244677 3
1.0683901 12.153532 5.7220621 4
1.7292087 12.171665 5.731492 3.5
1.9125009 12.082542 5.7680187 3
2.7013888 12.102132 5.7812653 4
3.3649952 12.287313 5.7643104 4
3.6324332 12.113381 5.7919011 4
5.713748 12.29029 5.7069168 4
7.5734897 12.118819 5.8263164 4
0.70223099 12.413085 5.7069368 6
1.370658 12.445102 5.7246475 3
2.1989241 12.494841 5.7663822 3
2.4551635 12.30949 5.777586 3
3.1130896 12.528144 5.7685237 3
5.0945387 12.504677 5.7758217 5.5
5.3217688 12.52101 5.7527838 5.7851562
5.6840534 12.460176 5.7297001 2
5.7196321 12.334881 5.7395334 4.5
8.3430996 12.578726 5.8131628 4
0.18928681 12.854334 5.7314806 6
0.45061758 12.620821 5.7120762 4
0.89818984 12.821119 5.7222748 5
1.1632487 12.641009 5.7299428 4
1.6605594 12.812007 5.7235279 6
1.9412497 12.706852 5.7679133 3
2.5481834 12.832177 5.7018657 5
2.8520138 12.77551 5.7774324 5
8.0730572 12.817555 5.7587056 4
9.4562082 12.657364 5.7975082 4
-9.9834661 -19.11335 6.0890994 5
-9.7903643 -19.074446 6.166121 3
-9.4365921 -19.043337 6.104651 3.5
-9.1167288 -19.094034 6.1367879 7
-8.876152 -19.006691 6.0891385 5.6666665
-8.5795021 -19.040016 6.0735989 6.25
-8.2583075 -19.032139 6.0737243 6
-7.9339347 -19.046394 6.0845628 5.6666665
-7.6858106 -18.995878 6.104733 6
-7.4591374 -19.064259 6.0882015 6.5
-7.0531449 -19.033865 6.0858955 5.9375
-6.6751165 -19.051586 6.0834537 4.25
-6.4132514 -19.089979 6.0794411 4.25
-6.2037272 -19.048767 6.0949221 3.5999999
-5.88481 -19.027386 6.0746684 5
-5.5425134 -19.056524 6.0719066 6.1428571
-5.2119045 -19.040539 6.0736952 5.4000001
-4.9192462 -19.007103 6.0792055 5.0999999
-4.7086353 -18.979546 6.0720215 4.75
-4.3748288 -18.999737 6.0866523 5.4000001
-4.0811415 -19.005642 6.0850706 5
-3.7667794 -18.973724 6.1062088 3.75
-3.4190032 -19.008282 6.0854273 2.5
-3.0740507 -19.059143 6.0201802 6
-1.6750638 -18.951 6.0626721 3.5
-1.3926295 -18.98506 6.0364165 4.5
-1.0669558 -19.025608 6.0293598 5.5
-0.73624468 -19.012589 6.0504341 3.5
-0.39232925 -18.970333 6.0526466 2.5
-0.11165188 -18.987232 6.0391889 5
0.22843847 -19.028927 6.0488372 6
0.51641119 -18.928482 6.0707674 4
0.73783582 -19.030762 6.0366349 5.5
1.1863532 -18.991617 6.0449572 4.5
1.3377947 -19.027594 6.0513902 4.6666665
1.6502033 -18.947515 6.0408645 4.3333335
2.6657743 -19.075775 6.0558887 3
-10.106249 -18.752369 6.107832 3.5
-9.771246 -18.739616 6.0966539 4.5
-9.4185266 -18.686335 6.1060472 3.1666667
-9.1098356 -18.755919 6.1114831 3.3333333
-8.8129749 -18.713804 6.1010418 4
-8.6315536 -18.78508 6.1117358 4.75
-8.2794876 -18.74095 6.1024704 3.4166667
-7.9636369 -18.821035 6.1019673 3.1111109
-7.6261692 -18.786144 6.0965986 3
-7.3657207 -18.810207 6.0876031 4.125
-6.9788847 -18.688141 6.0703177 3.1666665
-6.6303768 -18.713921 6.0676999 3
-6.4161587 -18.778397 6.0795641 4
-6.2322764 -18.798485 6.0773144 3
-5.8040533 -18.714886 6.0749145 4
-5.525507 -18.735239 6.0709658 4
-5.29705 -18.646776 6.0632863 5
-4.9837646 -18.745392 6.0693407 4
-4.6756186 -18.786942 6.0644479 3.3333333
-4.3561788 -18.761557 6.0730486 3.75
-3.9947584 -18.715725 6.062232 3.5
-3.6913533 -18.702168 6.0675182 2.5
-3.4206405 -18.723156 6.065474 2
-3.1359127 -18.727301 6.0671654 3.1666667
-2.9996424 -18.835285 6.0901246 4
-1.6532155 -18.643482 6.0460768 3.3333335
-1.3249784 -18.778791 6.045476 3.5
-0.99769783 -18.75028 6.0378675 3.25
-0.7571314 -18.751947 6.0314164 2.3333333
-0.34605354 -18.863232 6.0326929 3.5
-0.11137272 -18.746586 6.031517 4
0.13176084 -18.789314 6.040585 3.125
0.42856026 -18.754934 6.0345645 3.3333333
0.72385794 -18.72971 6.030714 4.5
1.0392331 -18.812611 6.0404673 4.25
1.2548141 -18.710279 6.0287914 3
1.6751854 -18.700068 6.0384083 2
1.9914908 -18.689013 6.0172801 4
2.2140341 -18.741749 6.0240979 4
2.611665 -18.642794 6.0168061 2
2.9053395 -18.798676 6.0367374 3.6666667
-10.117195 -18.459599 6.1013131 4.3333335
-9.6815929 -18.456055 6.1153989 2
-9.517725 -18.577471 6.110198 4
-8.6232176 -18.314436 6.089334 4
-8.3237724 -18.37904 6.1025572 3.5
-7.9429903 -18.425932 6.0947685 3.5
-7.6053934 -18.501118 6.0858641 3
-7.4097085 -18.417219 6.0766425 4.3333335
-7.1471205 -18.418566 6.0833902 4.5
-6.8764758 -18.301844 6.1233745 3
-6.4566488 -18.494678 6.0801935 3.5999999
-6.0718694 -18.532179 6.0525694 4.5
-5.8385639 -18.525782 6.0655317 3.75
-5.5751657 -18.4347 6.0646052 4.125
-5.2696166 -18.455116 6.0682497 4.75
-4.9942107 -18.487576 6.0572457 3.8333333
-4.6867485 -18.51104 6.0663834 3.625
-4.3482332 -18.446783 6.0587468 3.8333335
-4.0171514 -18.475048 6.0647445 3.5
-3.7183468 -18.508127 6.0608864 3.6666667
-3.483304 -18.395115 6.0738592 2
-3.1662962 -18.466694 6.0614047 3.5
-2.9510942 -18.47744 6.0598021 3
-1.8366292 -18.328583 6.0588784 3
-1.7195117 -18.416046 6.0383873 2.9375
-1.3250949 -18.537016 6.0485244 3.2
-1.0401045 -18.457466 6.0446038 2.9333334
-0.73202652 -18.423342 6.0328465 3.1111109
-0.43874598 -18.419338 6.0288935 2
-0.2962479 -18.37818 6.0370674 3.25
0.17409937 -18.546785 6.0379376 3.6666667
0.47520587 -18.481276 6.0438781 3.3333333
0.71873939 -18.467505 6.0309052 3.8
1.0029781 -18.357531 6.039938 3
1.2230585 -18.514961 6.0359769 4
1.70149 -18.453373 6.0370812 3.3499999
1.9466385 -18.437664 6.03332 3.4166667
2.2262411 -18.5261 6.0242367 3.6000001
2.8835154 -18.42522 6.0386271 3
3.1569049 -18.497051 6.0246124 3
3.428865 -18.32864 6.0235109 4
-9.2252607 -18.116144 6.1670489 3
-8.8022232 -18.168716 6.108767 3.5
-8.6138029 -18.115685 6.1277938 3.3333333
-8.3025284 -18.123726 6.0924087 4.5
-7.8817596 -18.218555 6.124032 3.5
-7.6366634 -18.163643 6.1216836 3
-7.2971735 -18.156303 6.1031876 3.5
-7.0273027 -18.199514 6.0983248 3
-6.6605506 -18.247013 6.1027179 3
-6.4314098 -18.091246 6.0953484 4
-6.082653 -18.084412 6.0781484 5.1944447
-5.8509493 -18.179714 6.0716653 4.8000002
-5.5502214 -18.068628 6.0801325 4.3000002
-5.237555 -18.169559 6.0712171 4.2857141
-4.8885946 -18.181139 6.0646963 4.1999998
-4.6325283 -18.194307 6.0608654 3.75
-4.3781981 -18.093193 6.0893569 3.6666667
-4.0536914 -18.099661 6.0741143 3.9333334
-3.7896094 -18.096237 6.0785756 3.8499999
-3.5033252 -18.174698 6.0701141 3.25
-3.1682949 -18.156521 6.0660033 3.5
-2.9032767 -18.179459 6.0734539 3.4000001
-1.8645526 -18.116743 6.0576367 3.3333333
-1.6643411 -18.098782 6.0700889 4.4126983
-1.2729346 -18.053959 6.0544214 3.6287878
-0.96304846 -18.079624 6.0566716 3.54375
-0.64748174 -18.084761 6.0702929 2.325
-0.42731214 -18.059549 6.0545239 3.2619047
-0.083732441 -18.052145 6.0434361 4.4107141
0.19381273 -18.06674 6.073339 3.7833335
0.33237499 -18.129446 6.0515938 5.166667
0.64752179 -18.110449 6.0573645 4.645833
1.3319693 -18.15015 6.0592337 3.375
1.6686192 -18.086988 6.056747 4.7777781
2.0028353 -18.08634 6.0603352 3.8333335
2.2767258 -18.163387 6.0600805 4
2.5851724 -18.183222 6.048243 2.6666667
2.8156252 -18.159601 6.0525241 3
3.1352732 -18.163763 6.0436988 2
3.4077997 -18.210384 6.040597 3.5
3.6844702 -18.09833 6.0369225 4
-10.084816 -17.775509 6.044642 4
-9.2110739 -17.806797 6.053309 3
-8.9377842 -17.786755 6.0944057 4
-8.4356394 -17.915905 6.0846329 4
-8.27983 -17.794207 6.0015297 3
-7.7255259 -17.773399 6.0222921 4
-6.4132748 -17.953573 6.0739598 5.6666665
-5.9294391 -17.940866 6.0792789 5
-5.3529406 -17.881966 6.1902447 5
-5.0273161 -17.918919 6.2053919 4.5
-4.7616663 -17.966331 6.0778847 5.5
-4.4120064 -17.954216 6.0944419 4
-4.0550513 -17.904652 6.0785518 3
-3.7499964 -17.987284 6.0834675 5
-1.5356045 -17.986549 6.0597277 4
-1.3839074 -17.963264 6.0848217 4
-0.99980086 -17.891741 6.0358276 3.3333335
-0.78275144 -17.956676 6.048912 4
-0.40091157 -17.976686 6.0638099 3.4166667
-0.13801418 -17.9659 6.0689898 3.3333335
0.12672342 -17.947647 6.0675731 5
0.47941196 -17.903557 6.0605278 4.5
1.9497035 -17.967457 6.0554194 4
2.2373331 -17.916027 6.0494599 3.6666667
3.7034562 -17.938841 6.0578904 4
-9.9813747 -17.541662 6.1060181 4.8571429
-9.7504025 -17.593098 6.0661364 5.25
-9.4759636 -17.532822 6.1113191 5.4499998
-9.0904303 -17.528507 6.1414886 6.5333333
-8.8586006 -17.507944 6.1388435 5.6428571
-8.5788383 -17.528555 6.1384978 5
-8.1871195 -17.540564 6.0999494 5.7142859
-7.9182081 -17.508183 6.1080556 5
-7.7476058 -17.5383 6.0984459 6
-7.3986802 -17.505344 6.0773401 6.166667
-7.0460033 -17.52529 6.1202068 6.166667
-6.8383422 -17.543722 6.1060166 5.6666665
-6.3716521 -17.53907 6.0698938 6.583333
-6.1974726 -17.490805 6.1771736 6.1999998
-5.9187741 -17.482882 6.14645 6.1999998
-5.561718 -17.504522 6.1265583 5.7916665
-5.215229 -17.535568 6.1130738 5.7777777
-4.8952627 -17.551039 6.0521088 7
-4.7857113 -17.555597 6.0989499 7.6666665
-4.4297376 -17.522511 6.0625725 6.4000001
-4.1003146 -17.553473 6.0582657 6
-3.6225455 -17.555504 6.1386843 2
-3.2656476 -17.484085 6.1177735 4.75
-2.9544039 -17.525299 6.0928197 5
-1.8899689 -17.47299 6.054678 4
-1.6359417 -17.529701 6.1043458 5.6777778
-1.2926824 -17.537638 6.0892491 6.3125
-1.0112215 -17.503641 6.084228 5.3714285
-0.7277329 -17.488691 6.0892048 4.7142859
-0.41083765 -17.501627 6.0825047 5.25
-0.15494254 -17.515705 6.094028 6.5851851
0.13029684 -17.521149 6.0802245 6.2380958
0.3864724 -17.53672 6.0223327 7
0.72683918 -17.491825 6.1011362 5.3571424
1.0599816 -17.536819 6.0660872 6.6428576
1.359884 -17.525677 6.0784726 7.2428575
1.630769 -17.513618 6.1001158 6.1999998
1.9194121 -17.494358 6.1032596 5.4333334
2.2324169 -17.479088 6.1027579 5.3333335
2.5357649 -17.546268 6.0702124 4.2777777
2.8314066 -17.506937 6.0897756 5.2777781
3.157285 -17.539557 6.0662799 6.1111112
3.4732614 -17.522404 6.0616627 6
3.8427191 -17.532587 6.0610685 6
4.1414776 -17.52071 6.126596 4
4.6289005 -17.542355 6.0592432 5.75
4.8907661 -17.505302 6.0887766 4.5
5.2639427 -17.497349 6.0752683 3.75
5.6121573 -17.509489 6.0565376 4.6666665
5.9684591 -17.510427 6.0692396 5
6.1289544 -17.48353 6.0750732 4.6666665
-10.234123 -17.364834 6.2031894 4
-10.088708 -17.241976 6.2187824 3.5
-9.6690331 -17.365379 6.1749468 2
-9.4744635 -17.195274 6.1672883 3.6666667
-9.2118616 -17.280573 6.1787744 4.1666665
-8.8562136 -17.2293 6.186831 3
-8.4282513 -17.302732 6.1619005 3.5
-8.2514944 -17.251245 6.1682682 4.3333335
-8.0496721 -17.239561 6.1721053 3.3333333
-7.6920171 -17.275936 6.1606503 3.1666665
-7.3257737 -17.151861 6.1510406 4
-7.0454774 -17.302891 6.1784768 3.2
-6.7691422 -17.164864 6.2207832 3
-6.5023317 -17.248352 6.1957688 3.3333335
-6.1615109 -17.238964 6.1593132 4.2857141
-5.8477407 -17.254984 6.161612 4.2857141
-5.5103798 -17.34314 6.1655216 5
-4.8900738 -17.169161 6.1374331 2.5
-4.6008358 -17.269489 6.1259613 3.5
-4.411479 -17.180649 6.1324821 3.7333336
-4.0638428 -17.289791 6.138134 3.3499999
-3.8721476 -17.294064 6.1301394 3.1666665
-3.5522418 -17.383602 6.1463108 2.5
-3.1136947 -17.141224 6.1418653 3.5
-1.6328535 -17.201361 6.1166649 3.75
-1.3356903 -17.291595 6.1330733 4
-1.0472301 -17.270935 6.1198144 3
-0.77582675 -17.21937 6.1223841 3.8
-0.42291966 -17.262495 6.1310768 3
-0.20090169 -17.208944 6.1146464 3.3333333
0.12333054 -17.292847 6.1059513 4
0.40077451 -17.218863 6.1099677 3
0.67493039 -17.281227 6.1220412 3.5
0.99902421 -17.290026 6.1064239 3.5277779
1.3265781 -17.266163 6.1124125 3.6666665
1.6305392 -17.2293 6.1071754 3.9000001
1.9108241 -17.228607 6.0996304 3.625
2.2054882 -17.198742 6.1029224 2.875
2.6322179 -17.294054 6.1184278 3
2.8308125 -17.235992 6.109272 3
3.1066029 -17.274103 6.1059775 4
3.4008489 -17.273249 6.0846887 4
3.7093 -17.308651 6.098722 3.5
3.9948568 -17.208746 6.0919943 4.5
4.301558 -17.197166 6.1063151 3
4.7717595 -17.296991 6.0942721 2
5.0477295 -17.235926 6.0905175 3.3333333
5.2413936 -17.235746 6.0856152 3
5.4170351 -17.212826 6.0930057 2
5.8511796 -17.223787 6.0840368 3.25
-9.9239483 -17.09473 6.0005412 4
-9.5110092 -17.065378 6.1803298 4.3333335
-9.1340714 -16.993324 6.1826463 3.6666667
-8.6326237 -16.904795 6.175642 4
-8.3132677 -16.992067 6.1688943 4.6666665
-7.8769884 -16.97438 6.1677227 3.75
-7.6204672 -16.971365 6.1625376 3.75
-7.3017726 -16.98909 6.187037 4
-7.1016746 -16.918293 6.2343631 3.25
-6.8685951 -16.966108 6.2125416 3.75
-6.4442215 -16.976984 6.1658549 3.8
-6.1543479 -16.943302 6.1597085 5
-5.7844977 -16.911819 6.1458211 4
-5.5638313 -16.912992 6.1514134 4.5
-5.2735205 -16.903313 6.1468902 4.6428571
-5.0096102 -16.89481 6.1426277 4
-4.7201662 -16.99316 6.1374784 3.95
-4.346734 -17.001575 6.1409483 4.5
-3.9312236 -16.925394 6.1343222 3
-3.8823543 -16.823997 6.1455135 3.5
-3.3857813 -16.973465 6.1285501 4
-3.0895379 -16.937943 6.1461225 4
-1.5831695 -16.956322 6.1248364 3.5
-1.402805 -16.936901 6.1345849 3.9333334
-1.1090623 -16.97464 6.1327538 3.9166667
-0.83233267 -16.942678 6.1163979 3
-0.39689478 -17.000061 6.1214828 3
-0.23913616 -16.990175 6.1204071 3.5
0.21523215 -16.904058 6.1147742 3.3333333
0.46245456 -16.943394 6.117672 4.5
0.74195331 -16.987068 6.1068997 3.8333333
1.0466955 -16.952127 6.1111946 3.8666668
