# .PCD v0.7 - Point Cloud Data file format
VERSION 0.7
FIELDS x y z intensity
SIZE 4 4 4 4
TYPE F F F F
COUNT 1 1 1 1
WIDTH 1319
HEIGHT 1
VIEWPOINT 0 0 0 1 0 0 0
POINTS 1319
DATA ascii
16.846283 25.54921 -2.5944111 11
15.368686 25.964151 -2.54807 39
-13.983972 27.87361 -2.4555955 12
-13.874007 32.983265 -2.5002637 37
-13.995987 33.03883 -2.6265082 26
-13.728512 33.100365 -2.5602787 35.875
15.404028 33.519211 -2.5133235 17
-13.866899 35.266827 -2.4312389 16
9.8528786 37.002075 -2.4931824 12
9.9050121 36.978283 -2.4575691 14
33.153133 -32.132622 -2.2104464 16
31.237528 -31.915268 -2.1588469 8
33.293011 -31.855549 -2.2842107 13
33.330975 -31.845867 -2.2442074 12.5
28.194752 -31.742748 -2.1738484 9
28.404112 -31.710125 -2.1693907 11
28.670395 -31.606314 -2.1957715 9
28.959581 -31.640816 -2.1779745 12
31.294994 -31.089819 -2.1270068 11
32.266819 -31.181917 -2.1977713 14
28.787031 -30.533857 -2.173697 18
-13.755982 14.006664 -2.1464236 8
-13.756487 14.647614 -2.1978126 17.5
-13.784752 14.771858 -2.1683197 18
-13.735035 15.504203 -2.2666619 6
-13.818234 15.796031 -2.1366076 19
15.719287 15.707438 -2.1946256 8
15.733177 16.032919 -2.1386738 5.5
-13.790132 16.215784 -2.1125 14
-13.847637 16.554512 -2.1456861 18.5
-13.738323 16.79674 -2.101222 23
15.720999 16.546801 -2.2585735 8.25
-13.502553 16.859406 -2.1643629 61
-13.547343 17.25717 -2.1755903 34.625
15.549293 17.243412 -2.3668816 53
15.680698 17.229893 -2.2107387 35.5
-13.739291 17.669952 -2.1504433 10
15.631207 17.731754 -2.2545207 5
-13.879089 18.144459 -2.2525158 8.666667
-13.786841 18.243694 -2.1200771 48
-13.908448 18.573048 -2.1233008 10
-13.790945 18.321373 -2.3263967 5
3.9296703 18.518677 -2.1046333 30
-13.937747 18.884912 -2.1828177 12
-13.771383 18.72282 -2.2245326 14
3.832257 18.681499 -2.1426251 16
15.717748 18.678856 -2.1378896 7
-13.78414 19.104656 -2.1593814 29.75
-13.741511 19.417727 -2.2779772 10
15.696743 19.395033 -2.1143863 8
-13.729773 19.607748 -2.2379825 10
-13.807899 20.026625 -2.1377068 23.25
-13.716876 19.827261 -2.2977192 10
-13.906519 20.156223 -2.143662 27
-13.823859 20.556379 -2.1180823 27
-13.747479 20.590916 -2.263788 8
-13.799964 20.951189 -2.1641204 18
-13.80871 21.060913 -2.1194036 24
-13.982769 21.328205 -2.1928558 12
2.4891689 21.360514 -2.3531559 11
1.3386836 21.81477 -2.2807126 50
1.5614827 21.680296 -2.2806294 53
-1.1975334 21.931116 -2.2682538 23
-0.6540485 22.441433 -2.3789127 8.5
1.546097 22.471344 -2.107089 31
1.9424648 22.207987 -2.3564773 51
3.0249975 22.371016 -2.3789487 21
3.7546272 22.438341 -2.2757914 15.25
2.5811806 22.629879 -2.143024 42
4.5334306 22.730427 -2.1452122 16
-13.905584 23.085638 -2.2309721 33
-13.895466 23.336601 -2.247596 29
4.5098171 23.562483 -2.3739693 16
-2.0098686 23.999718 -2.2411036 7
0.7443518 23.785179 -2.1754656 28
0.9689889 23.872173 -2.2391057 21
-1.8894182 24.153582 -2.1867676 23
0.34347248 24.013041 -2.2336781 8
-1.3730788 24.397701 -2.2825382 8
-0.68845809 24.447657 -2.2826166 8
15.451882 24.577925 -2.3568499 32
-13.897223 24.678793 -2.1493695 38
-2.8668747 24.610971 -2.2266469 13
-1.2740922 24.654144 -2.2647009 12
-13.601272 25.593489 -2.2621236 20
-13.843908 26.632433 -2.1127017 33
-13.777562 26.564419 -2.2758992 12
-13.903833 26.946663 -2.2289314 12
-13.781399 26.809597 -2.224185 16
-13.942142 27.459759 -2.1531734 35.125
-13.847293 27.768059 -2.1342187 38
-13.949638 28.16798 -2.2523775 13.5
-13.908113 28.35211 -2.1568379 26.5
-13.796921 28.215479 -2.3062654 17
15.615988 28.330629 -2.2943752 11
-13.905508 28.724888 -2.1343968 29
-13.843718 28.881348 -2.1332178 31.5
-13.839075 29.180569 -2.1436405 38.25
-13.917881 29.551247 -2.1937037 25.875
-13.872849 29.89986 -2.1298437 33.5
-13.763601 29.827776 -2.2810085 14
-13.857395 30.176443 -2.2140749 19.916666
-13.855402 30.346359 -2.2412181 15.5
-13.841192 30.731892 -2.1995502 23
-13.846455 31.024174 -2.1880274 26.875
-13.795019 30.908772 -2.2244971 13
-13.985943 31.319817 -2.3427088 15
-13.88119 31.642801 -2.2037954 22.75
-13.792406 31.637877 -2.3631363 13
-13.88146 32.083435 -2.1663461 23
-13.789507 31.815723 -2.2424011 31
-13.881272 32.283627 -2.1592712 22
-13.886644 32.450401 -2.2299819 30
-13.946598 32.854221 -2.2451608 40.875
-13.813542 33.044991 -2.1447079 49
-13.726092 33.162689 -2.2785776 31.020834
-13.624454 33.469994 -2.2814741 13.75
8.6068716 33.574303 -2.2721937 10
-13.560503 33.691902 -2.1820855 11
8.5226068 33.651276 -2.3548601 9
-13.915785 34.448837 -2.1954384 22
-13.983552 34.675392 -2.1413245 27.234375
-13.914572 35.096066 -2.1441088 19
-13.964301 35.139694 -2.1535273 23.5
-13.967654 35.704235 -2.1358736 33
-13.872744 36.196888 -2.1823473 24
-13.944682 36.472172 -2.1924663 22
-14.083351 37.575054 -2.1154375 41
-13.964052 38.56419 -2.2422719 17.5
30.343042 -36.620216 -1.9801902 11
34.416378 -32.15239 -2.0815582 25
27.498178 -31.91853 -2.0764506 11
31.186186 -31.815348 -2.0360801 10
33.045364 -31.996635 -2.0709023 13.5
27.598507 -31.732439 -2.0767105 10
27.649048 -31.599487 -2.0090091 34.5
28.477455 -31.640924 -2.0544047 12
28.532345 -31.61628 -2.0707264 9.5
32.27058 -31.668749 -2.0582914 12
33.234486 -31.505995 -1.9980133 11
26.733938 -31.471542 -1.996277 12
27.258142 -31.42695 -1.9956889 10
27.309307 -31.439301 -1.9423337 11.5
28.667088 -31.376148 -1.9744976 8.25
27.289406 -31.174652 -1.9095725 12
27.347015 -30.997913 -1.957763 10.5
28.093948 -31.17075 -1.9407848 6
28.657568 -30.982534 -2.0197618 14
31.295486 -31.122379 -1.9905165 13
32.366085 -31.194546 -2.0555413 11
28.770819 -30.83807 -1.9155517 9.5
28.86624 -30.76729 -1.977617 12.125
31.644297 -30.838188 -1.8390676 9
31.91032 -30.82733 -1.8031664 12
28.786322 -30.437355 -2.017622 20
29.640976 -30.551666 -2.0057313 10
30.146145 -30.373352 -1.9518843 15
28.96221 -30.074055 -1.9029047 14.25
30.116255 -30.225271 -1.8454874 21
32.554703 -30.213421 -2.0083449 13
-13.72464 11.081594 -1.8872939 11
-12.647342 11.407541 -1.9802768 10
-9.9848423 11.509696 -1.861377 4.5
15.709662 13.695855 -1.9009511 8
-13.779978 14.231618 -2.0933154 39
15.705248 14.376757 -1.9342487 7
-13.752329 14.462095 -2.052433 32.5
-13.748967 14.868779 -1.9675159 17.5
-13.770809 15.141961 -1.9684441 18.5
15.695745 15.091245 -1.966362 11
-13.753729 15.412157 -1.9807565 25
-13.765057 15.702048 -1.9458909 25.625
15.706499 15.743086 -2.0479198 5
-13.760874 16.144184 -2.0099735 25
5.7130771 15.957285 -1.9463109 28
15.762089 15.949606 -1.9264307 4
-13.838236 16.289022 -2.0371091 12
-13.740037 16.317686 -1.8557007 20
5.3383808 16.286577 -1.9422389 44
8.2099781 16.347761 -1.8614975 30
-13.82358 16.570656 -2.0162935 26
-13.758329 16.634794 -1.9373388 29
4.9157658 16.633461 -1.9603555 40.75
-13.548712 16.896812 -1.9740667 36.3125
4.1616211 17.019413 -1.9416665 13
-13.540984 17.260845 -1.933004 25.375
15.540215 17.28857 -1.8553935 44
15.707774 17.192793 -1.9929481 4
-13.583642 17.548346 -2.0113034 45
4.1502743 17.55069 -1.9943795 22
15.511415 17.44475 -1.821259 73
-13.747149 17.727415 -2.0364566 38.25
15.489195 17.814337 -1.9858229 5
-13.765802 18.090204 -1.8611275 36.5
15.693985 18.252254 -1.8906033 7.5
-13.788422 18.361822 -1.9373809 38
15.725359 18.463146 -1.8574098 7.5
-13.807824 18.656773 -2.0693839 36
-13.785154 18.689051 -1.9463463 40.375
3.8704803 18.609415 -2.0729544 23
3.9815221 18.854876 -1.8203552 5
15.699804 18.65303 -1.9016082 8
-13.792446 19.027943 -2.0922048 27.5
15.654707 18.975573 -1.879925 6.75
-13.810214 19.293192 -1.9631678 35
15.687492 19.299221 -1.9617474 7
-13.810865 19.620657 -2.027452 43.1875
15.584572 19.692833 -1.9672199 7
15.648329 19.71788 -1.8427806 6.8125
15.629219 19.905453 -1.9070566 7.25
-13.801203 20.245779 -1.9841385 41
-13.811722 20.51219 -2.0590007 40
-13.782289 20.521563 -2.0860925 34
3.1922724 21.513813 -1.8936338 21.25
-13.869927 21.839966 -2.0699115 60.5
15.620643 21.654461 -1.8746542 7
15.618105 22.062532 -1.9378376 6
1.5919454 22.49721 -1.8074098 35
1.9742491 22.416138 -2.0794795 36
2.6186824 22.445784 -2.0188949 31
3.892772 22.495411 -2.0282984 42
1.37609 22.569515 -2.04809 48
1.9906212 22.724073 -2.0539434 46
3.913327 22.522364 -2.0728493 29
4.3382316 22.691706 -1.9054886 32
4.5541348 22.723532 -2.0586722 18
-13.853476 22.968971 -1.8608671 51.5
1.0105045 22.836517 -1.800078 17
1.4316192 22.837029 -1.8737234 47
2.0299196 22.842958 -1.9318653 25
3.8634505 22.86923 -1.8408686 53
-13.940417 23.220272 -1.9186664 33.5
-13.788882 23.110077 -1.8887658 33
1.4589174 23.149776 -1.8209261 42
2.0656676 23.186192 -1.8348305 38
2.204597 23.163546 -1.8377427 22
2.6331105 23.258484 -1.878983 38.75
2.7158561 23.255981 -1.8378229 36
-13.873586 23.608959 -1.8686805 48.75
0.40737125 23.685585 -1.8488895 6
2.2384095 23.472607 -1.9375185 26
5.0864606 23.574795 -2.0984309 8
-13.883415 23.907356 -1.8371701 55.5
-0.5507828 23.79648 -1.9730145 14
15.605206 23.9116 -1.8229655 9
-13.864754 24.184746 -1.8938446 36.875
-0.0050619775 24.262808 -1.8124191 23
4.8878069 24.146915 -1.9391326 33.375
-13.890667 24.488483 -1.9992861 51.75
-2.1416588 24.599285 -1.930815 12.5
-0.29040903 24.320187 -1.9839463 23
0.047291156 24.47555 -1.8698177 24
15.517404 24.461685 -1.8456519 13
-13.89019 24.736084 -1.9235553 52.6875
-13.747998 24.894587 -2.0264485 25
-2.2350724 24.695518 -1.9078224 13.625
-1.9531003 24.85397 -1.9165905 23.75
0.2064295 24.663816 -1.9881049 21
4.7630153 24.637987 -1.9436302 20
15.395332 24.734053 -2.0148139 24
-13.801787 24.91341 -1.8064562 44
-13.667947 25.039307 -1.9124992 29.5
-3.9130781 25.088717 -2.0260446 12
-3.8051729 25.114799 -1.9474517 16.5
-1.5796907 25.125618 -2.0681288 18.5
-1.4590402 25.186974 -1.9113379 33
-13.649237 25.29109 -1.9527645 27.541668
-3.6657951 25.314878 -1.9292874 15
-3.4039779 25.409504 -1.9127941 14.5
-3.2561176 25.454357 -2.0153813 22
-1.5706133 25.217926 -1.9023323 25
-1.2878292 25.339561 -1.872817 11.375
-13.605602 25.643261 -1.9018981 29.0625
-4.9453373 25.784695 -2.0797818 13
-4.7539368 25.680763 -2.0523028 12.5
-3.1336756 25.561333 -1.975404 12.25
-2.9073532 25.718365 -1.8706634 14.25
15.458049 25.51458 -1.9194276 21
-4.8740382 25.948313 -1.8967098 10
-4.6316729 25.825706 -1.9559466 14
-4.3254776 26.038303 -1.9992954 13
-4.0837555 25.916084 -1.8182455 16.75
15.302341 25.924633 -1.9394159 23
-13.839733 26.341019 -1.9211462 44.125
-5.212923 26.240013 -1.9199045 14
-4.933712 26.276777 -1.9148695 13
-4.7056708 26.302855 -1.8266165 23
-2.9977202 26.274704 -1.9263662 18
15.363657 26.133347 -1.9736338 25.5
-13.914598 26.548828 -2.0455127 45.4375
-5.270072 26.483187 -1.8168615 10
-13.900019 26.828438 -2.0157852 35.875
15.496171 26.772055 -1.8016691 11
-13.854996 27.16242 -2.0061114 42.25
-6.3225355 27.124226 -1.952448 12
-6.1178017 27.181921 -1.8601913 14.25
-5.9667096 27.147289 -2.0613849 22
15.585872 27.073755 -1.8792629 10
-13.892906 27.447437 -1.9181668 45.138889
-5.8577352 27.559738 -1.902396 8.5
-13.875667 27.739075 -1.9398272 48.125
-4.2625813 27.661089 -1.9330138 16
-4.140377 27.792154 -1.9430287 11
-13.877974 27.97765 -1.9887278 45.078125
-13.897466 28.352203 -1.9180934 47.46875
-13.884668 28.581608 -1.9145577 38.5
-13.872101 28.975824 -1.9260613 45.463543
-13.877213 29.220762 -1.9393476 40.53125
-13.916967 29.515471 -1.8356047 44.934898
-13.894329 29.969419 -1.8682203 48
-13.912447 30.05728 -1.9230773 55.5
-13.891098 30.476942 -1.9489385 44.15625
-13.89634 30.764488 -2.0400674 40.414387
-13.911554 31.074303 -1.8336381 52
-13.897583 31.351004 -1.8840812 40.998264
-13.920201 31.645239 -1.8847779 44.410156
-13.952051 31.975477 -1.9898797 32.8125
-13.911005 32.149773 -1.9131794 43.375
-13.944555 32.524689 -1.9030839 47.398109
-13.890922 32.920586 -2.0067754 46.361977
-13.723557 33.175537 -1.9387344 26.524162
-13.627931 33.418701 -1.917508 15.8125
8.441103 33.597382 -1.953161 10
15.26763 33.592201 -1.8327616 24
15.508228 33.43692 -1.9276384 12.625
-13.594447 33.646542 -1.9111041 13
8.5344734 33.641357 -1.9776251 9.5
8.7385883 33.651669 -1.9266864 10
15.283007 33.648338 -1.8901863 24.5
15.362232 33.66077 -1.8754596 26
-14.008169 34.333046 -1.9021993 33
-14.022734 34.657845 -1.870415 37.332031
-14.027756 35.014191 -1.9115516 48.5
-14.117183 35.166992 -1.8848659 50
-13.979107 35.265934 -1.8791922 46.666668
-13.967858 35.501907 -2.0242333 57.5
-14.038336 35.861023 -1.943392 39.25
-14.037807 36.080986 -1.9169792 41.5
-14.028265 36.378448 -2.0620439 38.5
-13.972267 36.623066 -1.8467474 39
-13.981999 37.128857 -2.0439878 43
-14.031049 37.368301 -1.8114951 28
29.31144 -35.959637 -1.5682414 6
28.151211 -34.959091 -1.5098017 10
27.72893 -34.782101 -1.6688854 12
26.937078 -34.136105 -1.5265633 10
27.055901 -33.686218 -1.6254122 9
27.330503 -33.305798 -1.521045 11
27.276541 -33.170425 -1.5318145 12
28.587727 -31.540127 -1.7466904 11.5
30.794399 -30.805456 -1.7971929 13
31.955912 -30.750458 -1.7011201 10
28.745237 -30.191429 -1.7566584 9
28.9081 -30.177893 -1.7604241 13
30.163069 -30.227495 -1.7848768 9
32.466576 -30.134731 -1.73366 10.5
-17.060711 3.1219065 -1.6232498 6
-17.074373 4.1208291 -1.5468556 9
-13.67444 10.68306 -1.5069679 22
-13.693863 11.292992 -1.5345716 21.5
-13.660233 11.408657 -1.7343695 20
-13.708615 11.82751 -1.6381797 26.666666
-13.688835 12.001172 -1.6813817 25
15.761041 12.557458 -1.5953972 11
15.769744 12.701997 -1.5574601 3
15.752338 12.948583 -1.6854895 8
15.799104 13.369066 -1.559648 8
15.772837 13.620701 -1.7151536 11.5
-13.72799 13.891541 -1.639761 21
15.739376 13.894085 -1.5740027 7
-13.728656 14.380395 -1.5127611 17
-13.801476 14.874576 -1.7922486 20
-13.772856 14.859354 -1.6380186 30.25
15.796328 14.958024 -1.6545079 5
-13.749831 15.190491 -1.5349782 24
15.746284 15.029801 -1.637699 7
-13.757121 15.416751 -1.6458647 31.083334
6.9259229 15.556503 -1.635136 6
15.749603 15.528454 -1.5156726 6
-13.828139 15.819583 -1.7008197 10
-13.772657 15.696198 -1.687878 29.625
15.726328 15.681517 -1.6644981 6.875
-13.755699 16.061619 -1.6450059 26.945312
5.950695 16.19313 -1.5324383 24
7.6243577 16.146521 -1.7757598 29
15.731069 15.915263 -1.5035504 4
-13.776592 16.335283 -1.6663859 24.578125
5.4656572 16.404079 -1.542661 46
5.8069787 16.25359 -1.5745494 45.5
6.2569838 16.247242 -1.6102588 28.25
6.3182487 16.322786 -1.6221405 31
7.8747611 16.447193 -1.5713047 28
8.1832485 16.285454 -1.5056354 19
15.741997 16.338341 -1.54301 6.3125
-13.757175 16.604733 -1.6975541 18.09375
5.3625193 16.621571 -1.5803068 42.5
5.4288836 16.51549 -1.568944 45
6.7801733 16.721216 -1.7074246 28
6.9025979 16.727577 -1.702365 29.25
7.3442297 16.780754 -1.672906 22.5
7.721334 16.799934 -1.6346701 44
7.8214679 16.586517 -1.7167847 23
8.2169724 16.728489 -1.6174302 25.5
8.4456186 16.623394 -1.5392228 37
8.9829254 16.770575 -1.7157321 6
15.732262 16.625019 -1.6165297 6.2460938
-13.608772 16.944313 -1.5432384 39.648071
-13.491506 17.0168 -1.6348311 46
4.6712875 16.937277 -1.5775148 12
6.707375 16.830263 -1.5178599 28
7.7178154 16.912172 -1.6439922 38.5
8.8030396 16.873388 -1.7032396 15
15.76403 16.895569 -1.5978328 6.2558594
-13.521296 17.237879 -1.6757697 38.6875
-13.492499 17.101467 -1.6994317 41
4.4829783 17.124287 -1.662618 50
4.5012627 17.136147 -1.6539658 48
5.1741376 17.391783 -1.6438287 47
7.3156967 17.154995 -1.5976211 35
15.559935 17.292068 -1.6215914 32.818359
15.676662 17.185032 -1.698308 8.75
-13.591642 17.536144 -1.6315498 34.625
4.0793505 17.597485 -1.7163073 19
4.2865567 17.491474 -1.6414336 18
5.0485129 17.486578 -1.7294312 33
5.1812267 17.455406 -1.6272147 41.083336
15.470591 17.643776 -1.6559355 50.21875
-13.856132 17.81049 -1.776238 12
-13.72938 17.820276 -1.7406842 36.375
4.1876478 17.715317 -1.6400057 23
9.1001587 17.862206 -1.6415331 9
15.48528 17.826241 -1.6233779 20.625
-13.782478 18.021004 -1.717299 35.5
15.551126 18.078611 -1.5545717 10.5
-13.818832 18.453266 -1.5245748 25
-13.787758 18.461811 -1.6790442 33
15.715921 18.416771 -1.7460632 8.25
-13.802122 18.655363 -1.7747597 30
-13.770186 18.704281 -1.6825616 29.5
15.698931 18.755291 -1.7381723 8.640625
-13.819088 19.046799 -1.5201962 27
15.6925 19.040659 -1.6905817 5.3333335
-13.807363 19.206751 -1.7719448 23
-13.791397 19.392406 -1.5625981 26
15.694237 19.336933 -1.6445509 7.9583335
-13.793733 19.723984 -1.6203501 22
-13.823354 19.810247 -1.5225636 16
-13.789351 19.891392 -1.5212637 40
15.602331 19.997778 -1.7052931 7
-13.847124 20.20026 -1.580003 33
-13.771217 20.39188 -1.5064507 13
-13.83783 20.484737 -1.5592799 26.75
-13.76509 20.502342 -1.5614104 19
15.640073 20.537453 -1.5759879 8
-13.7905 20.874435 -1.5595539 24
-13.863791 21.152679 -1.6472311 55.5
-13.863468 21.520025 -1.6540427 43.125
3.1687825 21.511095 -1.6641655 8
-13.8582 21.713879 -1.5707617 62.966797
3.2888203 21.621105 -1.6129019 6
15.64285 21.78801 -1.6755619 8.5
-13.863707 22.148281 -1.5726628 36.5
-13.774336 22.127644 -1.6577675 31
2.8539329 22.034248 -1.7061083 10.5
3.4070988 21.971714 -1.7918748 10
3.6601763 22.033592 -1.7433265 6
-13.867073 22.257381 -1.7552817 48.75
-13.77827 22.378321 -1.5132248 51
-13.889124 22.5662 -1.6610744 61.201172
-13.790107 22.689877 -1.6141037 45
-0.082853749 22.692535 -1.6151294 17.1875
0.13350332 22.730299 -1.6339906 15.25
0.4304257 22.628654 -1.5897205 17.5
0.61611652 22.675764 -1.6401531 17.75
1.030449 22.750557 -1.5677147 36.25
1.675349 22.63073 -1.6979315 19.625
1.9230893 22.735092 -1.5485144 19.5
3.5247493 22.760897 -1.7493174 67
4.5075812 22.779902 -1.7669194 5
-13.870601 23.003019 -1.6350831 66.378906
-0.38207829 23.00491 -1.6809416 10
-0.25311905 23.04265 -1.528728 58
0.18886094 22.828003 -1.5707469 24
0.5658325 22.855072 -1.63283 6.5
0.87310386 22.951672 -1.6897734 23.875
1.0447555 22.918579 -1.711571 30.5
1.2821559 23.005253 -1.5750494 26.125
1.9567406 22.862644 -1.6400917 18.5
3.2934341 23.05479 -1.631399 30
3.4775016 22.934498 -1.5789986 55.46875
3.6776099 22.886711 -1.6626474 54.5
4.0347466 22.924614 -1.6452882 38.597656
-13.870256 23.20639 -1.7220508 61.578125
-13.791301 23.297163 -1.6233728 51
1.3484442 23.16869 -1.6978831 28.25
1.5460634 23.301733 -1.6976697 36.625
2.0705824 23.23246 -1.6691422 30
2.1601791 23.237778 -1.7329068 39
2.4920228 23.372131 -1.6485007 43.4375
2.7863913 23.238523 -1.7130924 53.46875
3.0768449 23.362095 -1.5965718 19.25
15.600242 23.10388 -1.5269132 7
-13.874274 23.551754 -1.656346 56.6875
0.28325745 23.563978 -1.69774 8
2.28862 23.45974 -1.708841 39.6875
3.2617846 23.470263 -1.5177268 34
-13.828936 23.789822 -1.6049496 41.110352
-13.799316 23.840534 -1.6572285 44
0.18204297 23.964514 -1.7890593 12
1.881346 23.762728 -1.6678123 28.5
4.4393382 23.90147 -1.5615644 16.5
4.5268941 23.901075 -1.5334343 18.5
15.630584 23.951229 -1.5297866 8
-13.895409 24.090324 -1.6988642 53.992188
3.0453577 24.148251 -1.5474005 16
4.690382 24.154345 -1.5306492 39.583332
4.8744059 24.239159 -1.6400515 43.75
15.620191 24.276833 -1.5511346 8
-13.903938 24.475147 -1.7495811 57.820312
-1.5543391 24.352497 -1.7748594 5
5.0730472 24.398508 -1.6162668 24.25
5.2416577 24.595261 -1.6921813 19
15.541569 24.442144 -1.6250228 13.916666
15.628059 24.364883 -1.6481874 7.5
-13.890511 24.736046 -1.657289 50.761719
-13.787709 24.881716 -1.6448452 44.875
-2.033999 24.855663 -1.7133478 24.625
5.3078957 24.660011 -1.5630119 9.25
5.4853363 24.752094 -1.6087422 14.75
5.9321723 24.864178 -1.59656 31
6.3508167 24.794497 -1.5058007 23
15.383968 24.83145 -1.6528389 38.75
-13.657589 25.049105 -1.6407516 24.664013
-2.2636452 24.95928 -1.5275548 15
-1.9222051 24.958305 -1.7037828 33.5
6.0714803 24.938763 -1.7679511 17
15.399673 25.139313 -1.6432171 28
-13.615043 25.260651 -1.6321404 32.625
-3.5912242 25.458572 -1.7615047 13
-2.9388542 25.474403 -1.5352091 10
-1.3924633 25.440516 -1.7878027 10
15.376728 25.379192 -1.6435676 43.125
-13.555339 25.632595 -1.6679488 22.433228
-2.8641644 25.536133 -1.5151063 8
-1.3420043 25.661552 -1.5740715 17.5
-1.190302 25.644964 -1.6596603 23
15.423506 25.719555 -1.6062963 39.75
-1.0790612 25.823154 -1.5612268 8
15.3962 25.893253 -1.6871984 32
-13.906145 26.312332 -1.7449207 46.039062
-4.4208775 26.168453 -1.6845646 11
15.289955 26.188513 -1.6622977 24.5
15.326073 26.242382 -1.7302616 20
-13.883228 26.612476 -1.6880693 46.952209
-5.0069475 26.525982 -1.7063791 8.75
-4.1312017 26.584644 -1.7522089 9.5
-13.886337 26.748505 -1.6040107 42.560547
-13.913121 27.244164 -1.6102991 51.222656
-6.2577467 27.212811 -1.7583778 8
15.701456 27.163115 -1.7095543 7
-13.896441 27.56311 -1.5959501 47.695312
-5.9929333 27.566727 -1.6787972 7
-5.5956988 27.471066 -1.7357136 9
-5.1905203 27.527742 -1.5895767 11.5
4.8298178 27.428602 -1.5070294 24
5.5160947 27.54678 -1.58813 9
15.666029 27.440075 -1.6640701 8.5
-13.909708 27.809896 -1.7218847 33.300781
-5.2541361 27.883177 -1.7897123 16
-4.3777809 27.673445 -1.7822959 10
-4.1390014 27.737247 -1.6247895 8
4.8604259 27.626669 -1.5422878 19
5.3115859 27.63802 -1.5765113 18.5
5.487711 27.630127 -1.5739131 12.8125
15.693507 27.729816 -1.5921166 8.25
-13.911179 27.94405 -1.6086893 54.636559
4.9277163 27.999199 -1.6615688 18.5
15.558804 28.001026 -1.6973147 10
15.600659 28.017982 -1.5919549 10
-13.891567 28.386543 -1.5640261 40.828777
-3.0109277 28.37957 -1.5764343 9
-2.886029 28.371124 -1.5469656 7.75
15.513168 28.274111 -1.7891213 12
-13.913218 28.68034 -1.6026533 39.774738
-4.8475657 28.52755 -1.5987161 8.5
-4.7721047 28.562397 -1.781662 11
-13.918051 28.966282 -1.5506415 43.203613
-13.919524 29.249008 -1.6065208 61.220055
15.655501 29.390163 -1.5482171 7
-13.913616 29.519085 -1.6316065 38.919922
-13.927 29.828915 -1.5876266 54.97591
-13.919607 30.105762 -1.7746453 47.518475
-13.890885 30.55098 -1.7291216 49.4375
15.550976 30.308596 -1.7642392 10
-13.938723 30.666328 -1.6371924 31.358398
-13.947493 31.172136 -1.6108983 44.481018
-13.923132 31.430828 -1.593008 47.130859
-13.948421 31.604197 -1.639291 44.6875
-13.957888 32.001041 -1.658205 45.640625
-13.963633 32.266586 -1.5541809 43.125
-13.991962 32.50388 -1.5888915 37.589844
-13.997316 32.780212 -1.6539613 47.777832
-13.841918 33.061699 -1.6328723 24.125
-13.687461 33.181984 -1.7179599 17.6875
-13.674326 33.505066 -1.682591 16.75
15.422449 33.489815 -1.6919336 19
-13.642055 33.691719 -1.6910535 7
8.4700527 33.604084 -1.7804171 10
15.239693 33.741936 -1.740997 13
15.318018 33.661739 -1.7449423 24
15.261301 33.987846 -1.6266359 9
-14.111623 34.426586 -1.7646841 16
-14.027625 34.479088 -1.6014752 38
-13.932719 34.577168 -1.7021102 29
-13.956558 34.966221 -1.5924952 41.75
-14.029696 36.300457 -1.756469 45
-13.996222 36.736828 -1.5944921 37
-14.02651 37.304596 -1.592912 55
-14.162513 37.94529 -1.7930485 34
-13.970499 39.184696 -1.5722724 53
-13.92163 39.709286 -1.5443587 36
-13.991258 40.978924 -1.5939162 32
-13.803458 41.194145 -1.7052331 25
-13.708937 41.668541 -1.6533698 27
-14.139526 45.480503 -1.5953692 78
-14.048318 45.823177 -1.7684001 32
29.285612 -35.82896 -1.2616738 13
29.473742 -35.807613 -1.3855838 10
29.546164 -35.673065 -1.254915 16
25.851566 -35.168373 -1.4373056 12
27.960554 -35.161179 -1.4736072 14
26.412508 -34.51104 -1.4340582 16
26.50919 -34.244225 -1.2899425 23
26.852259 -34.121025 -1.4304107 20
26.337736 -33.601269 -1.462024 10
26.871181 -33.789711 -1.4206648 11
26.559961 -33.402828 -1.246998 6
28.958572 -33.453938 -1.2761793 10
26.782101 -33.11348 -1.2127821 11
27.086185 -33.157753 -1.3670735 11
26.644068 -32.918972 -1.2056518 9
27.869358 -32.918591 -1.2061088 12
28.040756 -32.886086 -1.2996287 12
30.176241 -32.496311 -1.2195101 10
28.18734 -32.360683 -1.3488275 10
32.29319 -31.910849 -1.3163912 12
32.211853 -31.700962 -1.3229859 14.5
33.877457 -31.547697 -1.2476834 14
30.148933 -31.318991 -1.2381248 8
33.950294 -31.486807 -1.2426907 14
27.715714 -31.017582 -1.2468843 14
27.939114 -31.091431 -1.3298388 15.25
30.460535 -31.070541 -1.2018651 17
33.01849 -30.918268 -1.2296121 9
27.566563 -30.868353 -1.2456033 30
31.221361 -30.65818 -1.3111947 12
31.888988 -30.671038 -1.2183926 21
31.28009 -30.597593 -1.3037926 10
31.957827 -30.400431 -1.2117316 23
14.010786 -26.289152 -1.2004241 9
19.462484 -23.445707 -1.2087626 13
15.192733 -22.353161 -1.3612682 55
18.277609 -22.315029 -1.3413363 6
18.796892 -22.213486 -1.4015017 45
19.101023 -22.282642 -1.3521887 50
15.476328 -22.052347 -1.3478663 20.5
15.676648 -21.934883 -1.3026253 28
19.114695 -21.965797 -1.4044645 39.75
19.217453 -22.01199 -1.3031549 16
15.768602 -21.863298 -1.4243262 27
18.328054 -21.789551 -1.3352954 17
-16.984608 -0.13203247 -1.3081719 2
-17.057844 2.7071586 -1.4675416 8
-17.021137 3.1879544 -1.2818625 3
-17.017813 3.4788113 -1.3323843 4.5
-17.045898 3.7328539 -1.4033951 6.5
-17.060106 3.9987335 -1.3284049 5
-17.061848 4.3820162 -1.4121841 5.5
-17.019848 4.5106869 -1.2319322 4.5
-8.1463108 8.3228149 -1.4474159 17
-7.3428955 8.8674049 -1.2082738 55
15.607833 9.0346785 -1.359327 37
-7.3656631 9.4905367 -1.3016753 25
-13.72431 10.653566 -1.4234583 13
-13.710513 11.053745 -1.4333558 23.5
-13.698478 11.238708 -1.4049644 22.671875
-13.734447 11.474699 -1.4548244 11.5
15.718295 11.686501 -1.3353034 14.5
15.719713 11.837605 -1.367945 19
-13.666301 12.029955 -1.3025389 15
15.686527 12.287132 -1.2861528 18
15.760967 12.504967 -1.3833132 15
-13.718247 12.813656 -1.2291445 39
-13.722313 12.981867 -1.2134988 35.5
15.636617 13.11612 -1.2190758 16
-13.718933 13.385316 -1.2646796 25
15.647203 13.365323 -1.3426967 10
-13.829559 13.78569 -1.2100741 5
-13.741391 14.044343 -1.3468094 25.75
15.531174 13.982138 -1.2134144 31
15.636406 14.004566 -1.2958746 27
-13.756577 14.239717 -1.2645333 22.5
15.548281 14.302992 -1.2221062 31.5
15.63855 14.228874 -1.2600486 20.1875
-13.734459 14.531998 -1.2950969 23.237549
15.576093 14.608971 -1.2485081 30.90625
15.708596 14.44514 -1.3675214 6
-13.733849 14.854359 -1.3426361 27.182291
15.549128 14.85943 -1.2404203 35.875
15.636906 14.850756 -1.2905478 17.71875
-13.769528 15.19153 -1.3638049 25.852539
15.575201 15.180538 -1.2501162 25.546875
15.735765 15.131798 -1.4217637 7.4375
-13.76457 15.407802 -1.3973551 26.529099
6.8044 15.599564 -1.4277583 3
15.564642 15.521283 -1.2399244 14.960938
15.740252 15.423269 -1.4467078 8.765625
-13.757676 15.648695 -1.2917669 23.132162
6.7313848 15.608328 -1.4857351 5
15.56574 15.726359 -1.2621496 14.828125
15.684284 15.752731 -1.4371085 6
-13.765133 16.078926 -1.3316555 28.611816
8.4892826 16.178331 -1.4587526 25
15.526397 15.99812 -1.2567025 23.1875
15.755062 16.097523 -1.4236107 5.15625
-13.772208 16.394745 -1.2994473 24.890625
5.7949305 16.263741 -1.4296651 65
6.2723389 16.324844 -1.4773821 33
7.8672762 16.466299 -1.4924058 31
8.4193382 16.440401 -1.2761277 15
15.512365 16.360069 -1.2826822 20.828125
15.750566 16.35552 -1.3940282 7
15.990837 16.277548 -1.4019682 4
-13.781761 16.580162 -1.3467066 29.75
4.497972 16.536789 -1.4934967 4
7.987968 16.545553 -1.4100635 29
8.3242741 16.640825 -1.4752926 20
15.520685 16.622187 -1.3172854 22.125
15.719531 16.622604 -1.3999457 12.8125
-13.56378 16.837458 -1.3074298 34.75
-13.4919 17.044441 -1.2360506 29
8.1879454 16.85885 -1.4723634 25
15.543264 16.960472 -1.2885921 30.4375
15.731328 17.006613 -1.4109185 12.71875
-13.520627 17.1691 -1.2528799 41
4.641017 17.191011 -1.4216797 4
7.7520227 17.132486 -1.4878737 27
15.545202 17.26483 -1.3512063 26.694824
15.754207 17.131777 -1.4097377 7
15.926807 17.16221 -1.4489979 15
-13.507814 17.423538 -1.3346242 47
15.482773 17.475378 -1.3801115 49.001953
-13.86031 17.889565 -1.2864437 26.5
-13.784376 17.956146 -1.3663402 23
4.3652492 17.930552 -1.3376844 39
15.439477 17.933243 -1.3360786 14
-13.774445 18.124561 -1.3679725 18
4.8855934 18.024242 -1.3426142 18
7.9298606 18.144341 -1.2234942 34
8.4454985 18.070223 -1.2273346 24
15.489782 18.061327 -1.2294003 17.5
-13.810048 18.341494 -1.3320929 32
15.471913 18.481274 -1.2659802 22.5
-13.820676 18.857233 -1.3432584 22
-13.776472 18.772514 -1.3444731 46.125
-13.814647 18.935959 -1.3717047 47
15.445623 19.100891 -1.2744031 22.5
15.686409 19.132957 -1.4780827 7
-13.824356 19.308279 -1.3223019 41
-13.78583 19.390705 -1.3339739 27
15.490353 19.297449 -1.250777 19.5
15.655887 19.459093 -1.4634564 9
-13.830815 19.732002 -1.2434256 44.5
-13.776989 19.705181 -1.2902015 41.5
15.466874 19.573725 -1.2476025 15.75
-13.831879 19.96826 -1.308365 46.125
-13.787407 19.883636 -1.3166522 51.125
15.416041 20.067303 -1.2260592 9
-13.858175 20.312136 -1.3650776 66.335938
15.426132 20.325489 -1.2560648 21.5
-13.842428 20.593418 -1.3807712 62.234375
-13.780991 20.568035 -1.3449526 42
15.436463 20.622267 -1.3937883 9
-13.845031 20.898544 -1.3897262 49.173828
-13.799167 20.744967 -1.3883864 48
-13.8995 21.124712 -1.4258767 33.116211
-13.79722 21.001249 -1.4504641 46
15.462376 21.093849 -1.282625 27
-13.839277 21.428406 -1.3650291 29.051596
15.442239 21.586327 -1.204622 23
-13.876776 21.662128 -1.4648046 65.248657
-13.792663 21.692032 -1.3544884 41.5
2.9896104 21.695177 -1.4784185 5
-13.86747 22.062572 -1.2968242 53.567829
15.443462 21.989513 -1.2725304 19.25
15.629614 21.952242 -1.4983491 7
-13.836622 22.420065 -1.3803862 43.915199
-13.798247 22.336359 -1.2100387 49
0.29504952 22.433357 -1.3122176 37
0.90478796 22.472799 -1.2647781 44
15.414062 22.388184 -1.3274007 18.25
-13.820248 22.573406 -1.3385696 34.755371
-13.797052 22.778803 -1.4321772 54
-0.01546157 22.68634 -1.4728441 55
0.15540528 22.651819 -1.3420875 45
0.42382154 22.595448 -1.4488032 19.25
0.73669583 22.623402 -1.4157511 42.75
0.98036361 22.722448 -1.4378998 37
15.488662 22.581785 -1.2083594 23.5
-13.848377 22.916452 -1.3436666 52.224869
-0.2551921 23.071196 -1.2818747 51
1.0595026 22.870869 -1.3478702 39
1.2211145 22.829708 -1.4601682 33
3.4356318 23.046169 -1.3255432 40.875
3.7139554 23.001823 -1.457998 62.5
4.1146116 23.058245 -1.4198322 5
4.2626624 22.955076 -1.4791371 6
15.433966 23.031853 -1.2225834 35.5
-13.881151 23.204111 -1.3986037 43.867836
-0.41453087 23.217827 -1.3344729 40.875
-0.23648439 23.139637 -1.25761 45.875
1.4067384 23.243656 -1.4306297 31.5
1.5458905 23.398579 -1.485413 39
2.0305531 23.383135 -1.4676048 7
2.6108463 23.384865 -1.4725423 60.5
3.2657037 23.29166 -1.3297713 36
3.5167983 23.14537 -1.2290139 29.375
3.7231145 23.26552 -1.3818589 34.3125
4.0314841 23.261137 -1.362658 11.5
15.392416 23.19302 -1.3711686 13.25
-13.858932 23.567417 -1.3304949 57.523933
-0.74545079 23.561609 -1.2228875 8.666667
1.3069246 23.528748 -1.2698724 36.75
1.6010133 23.612703 -1.3485065 36
2.0338984 23.405396 -1.4928094 10
2.2667069 23.531631 -1.443011 40
2.5690608 23.61762 -1.2786722 47
2.7230754 23.501724 -1.3917699 39.5
3.4851322 23.404127 -1.2228789 12
3.6462097 23.461958 -1.2031559 24
15.420765 23.524406 -1.2671466 20.125
15.639413 23.475218 -1.4252995 8
-13.841154 23.904617 -1.3062692 43.485321
1.3691339 23.713703 -1.247005 44.75
1.6776812 23.817102 -1.2805288 26.25
2.0138113 23.84816 -1.3556381 11
2.3252683 23.794003 -1.2341791 29.90625
2.677928 23.752249 -1.2653004 31
2.8754349 23.869059 -1.3834348 29.78125
4.061904 23.825844 -1.3799138 35
4.2896328 23.944304 -1.4016782 19
15.43408 23.840881 -1.2135675 29
15.751816 23.924866 -1.3186439 9
-13.867018 24.101398 -1.3528821 43.101807
1.7428682 24.24139 -1.2781986 40
3.0043077 24.086212 -1.2683399 15
3.7692289 24.186972 -1.2235384 39.5
4.1301489 24.091173 -1.3504636 27.0625
4.2663069 24.145435 -1.2943891 19.875
4.6451735 24.15885 -1.4399706 24
4.8507571 24.289274 -1.4687401 17
15.4617 24.192696 -1.2471309 30
15.621399 24.278624 -1.3850542 8
-13.892282 24.464066 -1.3582692 52.388306
1.7498357 24.473881 -1.245273 28.25
1.9547062 24.571617 -1.2747877 27
2.8824265 24.478527 -1.2292439 32
3.0207593 24.594719 -1.2011069 26
4.3233647 24.307316 -1.2131845 15.5
4.9093499 24.358231 -1.3682759 6.25
5.8996849 24.466951 -1.2656243 13.375
6.1169577 24.497715 -1.2378807 30
15.476477 24.468876 -1.4005183 24.734375
-13.819307 24.843342 -1.3154184 42.073524
-13.780238 24.872429 -1.3105794 43.375
2.033289 24.868183 -1.438175 32
3.0440471 24.601917 -1.3107908 23
4.3096533 24.634926 -1.2074356 19.5
6.225894 24.752728 -1.2729263 21.375
6.4587288 24.793964 -1.2732022 12.341146
15.404623 24.766796 -1.2235088 37.893555
-13.715796 24.991676 -1.4271984 34.484711
-2.2847424 25.051041 -1.4073448 9.6875
-1.9221641 24.999462 -1.3665025 16.111328
-1.671733 24.967407 -1.3697302 9.15625
4.3650751 25.039444 -1.2353332 11.5
4.5123267 25.052855 -1.3354172 6
15.427732 24.952372 -1.2366979 34.695312
-13.668892 25.283375 -1.2910585 22.215479
-2.2653203 25.225735 -1.3067367 6.5
4.5004201 25.446175 -1.3681122 7
15.433174 25.282337 -1.2871656 38.021484
-13.581083 25.629089 -1.2974755 30.659798
-13.477899 25.725437 -1.3342954 7
-1.3074408 25.703739 -1.4387569 16.875
15.373486 25.703053 -1.352386 35.625
-13.684277 25.925205 -1.2979711 61
-1.3928773 25.846451 -1.3589108 10
-1.1983796 25.829365 -1.4702547 13
15.368123 25.90089 -1.3463604 35.156269
-13.898382 26.366714 -1.287437 46.75
0.23788418 26.315125 -1.2239336 6
15.256884 26.148794 -1.4060807 12
15.364058 26.329288 -1.3530024 11.117188
-13.916379 26.575874 -1.2979945 50.851746
15.415373 26.478367 -1.2773869 12.125
-13.902964 26.838058 -1.3837197 62.648438
1.998899 26.820053 -1.241605 9.25
15.278054 26.924425 -1.3512416 9
15.385553 26.819132 -1.3086007 15.3125
-13.897449 27.052563 -1.3723783 48.567505
1.7087286 27.177429 -1.2282051 6
4.046155 27.236092 -1.2548227 16
5.2315407 27.251719 -1.2572795 15
5.6084814 27.2104 -1.2321384 17.822918
5.7259774 27.184299 -1.2648394 10.666667
15.375267 27.020966 -1.3339436 13.5
-13.908105 27.440916 -1.3158059 44.052612
4.0630131 27.369209 -1.2306314 14
4.2594595 27.391273 -1.2774038 12.776041
4.7487392 27.486763 -1.3898178 23.4375
4.889636 27.513332 -1.338738 19.526043
5.282197 27.467815 -1.2268414 19.25
5.4894342 27.348785 -1.2456899 17.5
5.8706169 27.362396 -1.2948812 8.75
6.0787601 27.429516 -1.2030728 8
15.36059 27.454582 -1.350107 13.5
-13.908142 27.741386 -1.2506361 40.349609
0.23424061 27.855049 -1.3147076 7
1.4221026 27.743788 -1.3277984 16
1.5109214 27.818203 -1.3105104 9
4.4350572 27.730833 -1.3478959 12
4.6613932 27.653967 -1.3203239 16.125
4.9242544 27.672604 -1.3553288 19.565592
5.2434835 27.642883 -1.4261572 25.3125
15.295813 27.87035 -1.3397424 11
-13.914307 27.995529 -1.2966056 48.427898
-0.82408452 28.079222 -1.3653936 12
-0.52205986 28.105457 -1.3711151 13.75
1.4823426 28.084076 -1.2880323 13
1.7539268 28.032825 -1.2824686 12.5
1.8432801 28.049843 -1.3054621 11.75
2.1437042 28.080305 -1.2758464 10
2.554522 27.938841 -1.2729925 16
4.4786649 28.140409 -1.2907795 9
15.257093 28.114059 -1.386282 10
15.415016 28.04723 -1.4189278 8.5
-13.929699 28.433317 -1.3785293 48.46875
-2.9169073 28.339067 -1.4054363 9.96875
1.6680778 28.210773 -1.2188067 10
2.4802432 28.364212 -1.3275046 20
4.425631 28.341492 -1.4955863 13
4.6638451 28.33547 -1.3206334 19.8125
5.3357406 28.224369 -1.388003 21
15.293007 28.392265 -1.3588762 13
15.358335 28.338425 -1.3607826 13.333333
-13.954178 28.682838 -1.4206426 53.04818
1.0206598 28.574369 -1.2483002 9
5.6480732 28.501835 -1.4114069 10
15.398273 28.544487 -1.3424392 21
-13.914542 28.904398 -1.4099884 50.645508
1.2847744 28.840832 -1.2162052 24
15.289042 28.992687 -1.4204131 10
15.34807 28.88122 -1.2325479 30
-13.929457 29.328293 -1.4158907 49.255859
-13.942114 29.525391 -1.3546762 45.671875
15.42711 29.685913 -1.2349278 22
-13.948783 29.935621 -1.348068 50.40625
15.358508 29.841883 -1.2161037 12
-13.953253 30.181971 -1.3832653 38.5
-13.974886 30.411407 -1.412666 38.875
15.448637 30.550976 -1.2258636 15
-13.925139 30.761974 -1.3834128 53.734375
-13.972256 31.103935 -1.4154832 38.75
-13.997658 31.426239 -1.3120861 33
15.45462 31.373436 -1.2609866 14.5
-13.944373 31.742908 -1.202481 40
10.974209 31.704144 -1.3194847 11.375
-13.956596 31.870865 -1.3125715 34
10.965565 31.850159 -1.2744583 12
11.629402 31.971931 -1.3308492 12.5
11.742844 32.017838 -1.2725316 10
-13.960401 32.113632 -1.2912968 36
11.77954 32.104939 -1.2943635 11
-14.006723 32.565948 -1.3796023 36.25
-13.977006 32.862549 -1.3465481 27.5
15.405843 32.732731 -1.2002858 18
-13.82959 33.057663 -1.3452928 28.9375
15.422488 33.287552 -1.3003855 14
-13.678593 33.486629 -1.4084586 13.5
8.4934807 33.585052 -1.4520199 13.5
15.270076 33.556854 -1.3090268 39
15.338636 33.475239 -1.3561759 25
8.6029282 33.623917 -1.3508388 10
-13.981544 34.707024 -1.3640738 40
-13.996502 35.044327 -1.3027618 37.25
-14.024876 35.310703 -1.4211603 25
-13.968102 35.457714 -1.2564824 34
-14.018713 36.560287 -1.2127122 32
-14.012567 36.878998 -1.3877801 40
-14.009569 37.03112 -1.4537188 51
-14.041986 37.316902 -1.2555562 24.5
-13.991888 37.571049 -1.3762736 34
-14.052553 38.086128 -1.2402419 47.5
-14.004366 38.698887 -1.2219328 30
-14.022572 38.815025 -1.2877667 41.25
-13.978837 39.466972 -1.3704528 42
-14.054287 39.675072 -1.3001401 29.5
-14.003885 40.153061 -1.2389264 51
-14.056269 40.285133 -1.2838871 42.75
-14.091909 40.515762 -1.2485389 26
-13.965065 41.039223 -1.2919929 36.75
-13.725323 41.354347 -1.3602216 19.5
-13.814981 41.589748 -1.4857106 23
-14.047535 42.840736 -1.3914825 24
-14.058167 42.940624 -1.3587884 25
-13.979676 43.21027 -1.4479351 44
-13.941224 43.753719 -1.3632634 35
-14.113399 44.611942 -1.2398624 27
-13.995667 45.280922 -1.2808875 32
-14.077418 46.343037 -1.4951371 48
-14.195938 47.801067 -1.316227 42
26.378305 -34.33321 -1.1377749 19.5
26.474342 -34.005165 -1.0766318 17.5
33.999374 -33.816162 -1.1048665 16
34.280796 -33.622379 -1.1456282 14
26.259676 -33.573845 -1.1576285 32
26.537348 -33.471878 -1.0949068 13.5
28.808031 -33.539192 -1.1357758 12
26.542038 -33.210007 -1.062659 15.75
26.958906 -33.023445 -0.9619844 11
26.574585 -32.872536 -1.1030234 13
27.724403 -32.908131 -1.1514463 13
27.917704 -32.837471 -1.0229678 16.5
27.447411 -32.559738 -1.0468245 9
27.87525 -32.540882 -1.0602491 13
30.121117 -32.535656 -1.0908294 10
30.349791 -32.514061 -1.1044701 15
27.686977 -32.182983 -0.90998286 13
30.289904 -32.358814 -1.1901654 11
30.693052 -32.165001 -1.0178485 9
31.96591 -32.225666 -1.1378748 8
35.38018 -32.192089 -1.1870621 12
32.154259 -31.998566 -1.1739221 12.5
32.182991 -31.710354 -1.1219206 16.375
33.886093 -31.555542 -1.1174915 12
30.187437 -31.333122 -1.1355237 10
30.581976 -31.232098 -1.041087 19
30.779945 -31.241806 -1.1321414 10.5
32.345306 -31.34314 -0.96967554 11
33.95755 -31.205124 -0.96877778 14
27.245588 -31.09005 -1.0563048 9
27.352077 -31.063765 -1.0965835 10
27.82238 -31.027174 -1.0682504 16
28.010986 -31.008648 -1.0452878 13.958334
30.575123 -31.143763 -1.0575156 13
30.6721 -30.911629 -0.96913546 7
32.279434 -31.004189 -0.97624582 21.5
32.659756 -30.916878 -1.076579 22
32.91679 -30.973339 -1.1098351 25.5
33.078171 -30.943985 -0.9667623 14
27.517302 -30.83952 -1.0641726 27
28.089443 -30.885983 -1.0391986 13.75
31.054794 -30.826019 -1.1392211 18
31.284409 -30.717884 -1.1998656 7
31.587112 -30.650602 -1.0995469 19
32.352741 -30.722404 -1.0378313 19
32.420853 -30.761366 -1.1056678 25
31.353355 -30.567768 -1.0309876 9.9375
31.916519 -30.452824 -1.0806414 20
32.532017 -30.590488 -1.0297589 12
32.045559 -30.295227 -1.192721 20
14.022515 -26.293245 -1.1386575 12
13.848336 -25.026527 -1.1760014 4
17.540779 -24.791002 -0.93254119 6
14.036977 -24.305071 -1.0013031 14
14.524701 -24.33139 -1.0431862 5
12.873418 -24.203896 -0.99403626 13
13.123655 -24.044781 -1.0064174 5
13.53359 -24.167028 -0.96417582 6
13.971923 -24.11577 -1.0382717 18.4375
14.285532 -24.263226 -0.96885085 13.25
19.696835 -24.083946 -0.95184499 9
14.117668 -23.739708 -1.045897 24
14.555715 -23.739712 -0.97814804 7
19.636341 -23.454704 -1.0055275 28.085938
19.701603 -23.210869 -1.0142725 29.708117
19.817808 -23.128441 -0.94716817 19
18.825783 -22.985641 -0.94736439 9
19.066717 -23.023146 -0.9516539 5.5
14.599112 -22.624065 -0.90902048 18
15.234174 -22.719803 -0.97960609 35
15.580834 -22.500607 -0.96363568 47
15.049623 -22.440262 -0.90437281 51
15.505978 -22.476139 -0.97969073 44
15.654944 -22.460646 -1.008051 18
16.049381 -22.220982 -0.96728075 38
16.379276 -22.296587 -0.94526428 29
16.668879 -22.280937 -0.91983157 33.75
18.112431 -22.381464 -1.0290956 8.25
15.520922 -22.016212 -0.9202652 32.5
15.842787 -22.163355 -0.98677307 53
16.116341 -22.191978 -0.96332639 24
17.844009 -21.910601 -0.94464207 8
18.033798 -21.833445 -0.91674304 23
17.048031 -21.527807 -0.90457946 39
-16.507217 -10.43387 -0.94995159 4
-16.466244 -10.418462 -0.96714222 4
-16.508102 -9.8760395 -1.0027735 4
-16.479303 -9.248498 -1.0178603 3
-30.299116 -6.4867887 -1.0276886 6
-16.987957 3.1806178 -1.02228 6
-16.964668 3.441148 -1.0435925 6.6354165
-16.968433 3.7781672 -1.0434804 5.2148438
-16.997566 4.0152111 -1.0358865 4.375
-16.979637 4.2802095 -1.049397 5.458333
-16.994493 4.676157 -1.0243578 12.194444
15.251343 6.2853346 -1.0117019 2
-8.1752176 7.8423624 -1.1803826 24
-7.3720112 9.1586924 -1.0111828 38.5
7.8028584 9.0986137 -0.90117842 1
-7.3491735 9.4824514 -0.97628969 26
7.7532196 9.6010237 -0.91745436 1
13.689659 9.6766796 -0.9974162 29
-13.688647 10.878198 -1.0796937 10
-13.678375 11.203693 -1.0491493 12.5
-13.619591 11.486287 -0.91471845 11
15.608404 11.570826 -0.90808541 64.5
-13.647003 11.928524 -0.98015368 17.621094
15.569766 11.83221 -1.0792645 62
-13.65332 12.145288 -0.94354045 13.5625
15.561867 12.286421 -0.94858748 67
15.601443 12.192397 -0.92096257 80
-13.702306 12.426556 -1.0746956 20.40625
15.558272 12.414639 -0.92672157 71.833328
-13.712178 12.658407 -1.1068219 23.273438
15.564218 12.683867 -0.99763644 39.292969
-13.67049 13.014244 -0.98794597 14.421875
15.535152 13.057207 -0.9930225 54.734375
-13.713875 13.341268 -1.0606685 25.25
15.558138 13.325333 -0.94707549 63.369568
15.640652 13.39036 -1.1977494 21.5
-13.792782 13.673957 -0.95918512 5
15.542072 13.679808 -1.0750066 64.179138
-13.740555 14.007067 -1.1080375 20.25
15.554489 13.973888 -1.0861137 54.948353
15.601368 14.069707 -0.95430511 63
-13.758543 14.339991 -1.1834021 25
15.553598 14.300106 -1.137723 54.167862
15.62109 14.281505 -1.1958698 19
-13.755199 14.489124 -1.063697 18.5
15.534973 14.463737 -0.99838895 52.383263
-13.70145 14.807381 -0.98122281 13.375
15.550928 14.769052 -1.068342 48.124756
-13.765564 15.126946 -1.1270206 19.25
15.539484 15.073343 -1.0235178 46.140625
15.602325 15.074904 -1.1998802 21.5
-13.721056 15.392487 -1.0302382 15
15.522747 15.444098 -1.1060934 45.590942
-13.818657 15.681637 -1.0638452 8
-13.73103 15.686529 -1.0455034 16.5
15.519114 15.647393 -1.1153271 28.65625
-13.774493 16.054783 -1.1496723 19.25
15.561407 15.964266 -1.0352573 34.750977
-13.742244 16.306988 -1.0313449 21
15.539785 16.310202 -1.0387758 53.375
-13.800783 16.791533 -1.1414877 42
-13.719583 16.705936 -1.0175023 19.4375
6.3603439 16.570992 -1.037936 38
7.0594864 16.702957 -0.93479151 16.5
15.512901 16.616362 -0.99688029 46.135414
-13.531255 16.967239 -1.0968043 34.3125
5.9625983 17.034466 -1.0124751 30
6.0782127 16.951954 -0.99829704 31.5
6.5738091 16.949017 -0.9810726 24
6.6985312 16.944149 -0.92552632 30
6.95714 16.937458 -1.0860915 26.25
8.597559 17.072327 -1.1239761 19
8.8497038 17.061872 -0.98581713 8.666667
9.0549889 17.063213 -1.0754564 23.5
15.517405 16.973164 -1.1186368 55.066406
-13.523043 17.303499 -0.99129534 38.25
-13.482473 17.28792 -0.99945617 35
5.5634398 17.251389 -1.0575204 23.5
5.7934022 17.13905 -1.1253937 40
6.0805545 17.212177 -1.0846655 35
6.9738321 17.235096 -0.97919899 26
7.7800059 17.372545 -1.0204175 11
8.6005459 17.234615 -1.0514128 11.875
8.7466631 17.184547 -0.97134209 11
9.1832237 17.213573 -1.1128997 16.75
9.324337 17.147318 -0.98181039 4
15.511267 17.252689 -0.99372363 60.03125
-13.582319 17.536785 -0.97879219 30.75
5.6509905 17.447472 -1.0269177 49
5.9415417 17.621792 -0.97423255 39
7.7250819 17.57365 -0.99338096 35.916668
14.957628 17.463825 -0.96580416 5
15.475029 17.530716 -1.0019977 28.4375
-13.688048 17.743626 -0.99170512 19.539062
4.2283673 17.972736 -0.99231124 3
5.0882359 17.871658 -1.1435741 19
5.1804123 17.925346 -1.0814986 24.75
5.9058137 17.889362 -0.96805006 24
6.1743116 17.963804 -0.9509868 30
7.0390735 17.753416 -0.91620243 16
7.6211734 17.944521 -0.96125132 33
8.1808147 17.855453 -1.0422194 24.25
8.4486475 17.975464 -1.066057 14.75
15.505363 17.760967 -1.0668181 62.523438
-13.815159 18.183479 -1.0737135 19
-13.769018 18.179686 -0.9831683 10.0625
4.4421597 18.088634 -1.0177665 4.25
5.034833 18.265289 -1.0791154 15
5.2678194 18.155283 -1.0452039 26.75
5.6119719 18.09181 -1.0104675 19.6875
5.7919626 18.058968 -0.93230724 31.875
7.4377384 18.198187 -1.016571 23
7.6425443 18.045147 -1.0866358 30
7.8363924 18.173494 -1.1111521 42.5
8.3595762 18.044708 -1.0830747 6
8.4219427 18.095097 -1.0992804 19.75
15.50602 18.202892 -1.043684 51.96875
-13.803011 18.427452 -0.99366182 18.25
-13.769244 18.446339 -1.0331329 16.408855
4.7028456 18.412445 -1.1464642 23
4.8990192 18.439064 -1.0598199 13.703125
8.0616531 18.557076 -1.0629919 20
15.505882 18.485867 -0.97657728 45.160156
-13.840912 18.733358 -1.0385991 19.976562
-13.774475 18.691856 -1.0372131 17.21875
15.501363 18.825939 -1.0746852 46.889648
-13.834591 19.144442 -1.0750209 28.365234
-13.764238 19.102776 -1.0463033 19.9375
15.494516 19.06358 -0.9970457 55.296875
-13.822475 19.380058 -1.0764425 21.923096
-13.773824 19.386356 -1.0523279 18.396484
15.48646 19.254341 -1.028228 44.699219
-13.823274 19.60224 -1.1117815 20.108236
-13.777406 19.577452 -1.0145793 16.609375
15.50511 19.68108 -1.0732734 34.59375
-13.820843 19.951866 -1.0235711 25.931152
-13.76936 19.9431 -0.94434106 14.6875
15.50543 19.985577 -1.1030291 40.09375
-13.810007 20.216057 -1.1624066 23.888508
-13.74923 20.210083 -0.98875463 12.71637
15.465445 20.284412 -1.0363317 49.8125
-13.842136 20.533472 -0.98249507 17.129494
-13.695397 20.601118 -0.95145404 24.235676
15.467529 20.622654 -1.0473164 36.125
-13.823124 20.932873 -1.1517024 29.540039
-13.791044 20.911301 -0.97159076 16.28125
15.51128 20.754227 -0.9725827 31
-13.830248 21.079721 -1.0018129 26.909775
-13.75327 21.151516 -1.0010629 19
15.436771 21.118416 -0.94801986 29.930988
-13.859205 21.406887 -1.0579737 35.120956
-13.780978 21.412445 -1.0073149 20.615234
15.452244 21.498541 -0.94972092 27.354166
-13.877469 21.714565 -0.96316564 20.737219
-13.757563 21.759706 -0.91856337 8.8125
15.4578 21.791565 -1.1032033 35.950195
-13.886339 22.031752 -1.0030615 18.215193
-13.76157 22.12759 -0.92681324 9.25
15.496182 22.087177 -0.98644507 26.5
-13.867355 22.406467 -1.0785699 41.690735
-13.765634 22.297146 -0.96702808 10
15.456399 22.365549 -0.96922922 32.65625
-13.856087 22.677752 -1.0865679 28.785294
-13.789579 22.705391 -0.96007943 8.5
0.22507514 22.607414 -1.1169661 29.166668
0.42900735 22.609982 -1.1496513 44.412109
0.78547502 22.628082 -1.1566687 29.226562
15.443192 22.619032 -0.99587965 23.609375
-13.890837 22.873371 -0.98424661 19.746731
-13.75296 23.011507 -0.91368014 9
-0.030875793 23.083805 -1.193493 45
0.29110828 23.027042 -0.96233958 29
0.56032979 22.907839 -1.0229874 10
0.7166217 22.835564 -1.0501974 7.5
1.0603307 22.894728 -1.1094213 18.5
1.2614053 22.947493 -1.0856704 5
15.434083 22.898472 -1.1460419 40.595703
-13.855124 23.23605 -0.97233367 18.850527
-13.772465 23.233425 -0.97243011 11.875
-0.53507936 23.372654 -1.1509135 22.25
-0.11396323 23.26712 -1.1304121 35.265625
0.13723829 23.217005 -0.98926872 30.529766
0.35010624 23.368912 -1.0221179 21.5
0.75180233 23.205738 -1.1356611 22
0.93014753 23.209991 -1.1424066 33
2.4434223 23.387926 -1.0443063 26.5
3.241951 23.34837 -1.0749419 38.59375
3.3783545 23.320053 -1.1726377 48.5
3.6713948 23.244576 -1.0095482 18.375
15.452061 23.234028 -1.0891702 23.921875
-13.852775 23.516178 -1.0406804 29.335625
-13.746784 23.536797 -0.90560883 9
-0.35698932 23.558771 -1.0048074 28.350214
-0.20741634 23.534874 -0.96985173 39.48587
0.097929597 23.565384 -0.93705273 21.128082
0.37884009 23.556232 -0.98658651 10.390625
2.3196254 23.45472 -0.9747771 12.5
2.5697846 23.529694 -1.0911533 30.709602
2.9377136 23.5273 -0.95141655 11.192383
3.2234526 23.451475 -1.0173609 26.243074
3.4338067 23.625725 -0.96657145 30.460064
3.6169763 23.505104 -1.1570528 11.5
15.43013 23.495638 -0.97412539 25.090277
-13.913244 23.929863 -0.99473703 27.998047
-13.781217 23.941387 -1.005657 13.5
-0.47381768 23.703838 -0.9866659 12
0.20994741 23.703987 -0.94697356 13.5
0.41712674 23.995407 -0.95083791 8
0.71283102 23.928371 -0.96165633 18.34375
1.0849514 23.899235 -0.98784328 35.094299
1.3741019 23.775398 -1.1314433 51.35474
1.6170945 23.858788 -0.98267275 28.894369
2.3153448 23.941429 -1.1564512 28
