# .PCD v0.7 - Point Cloud Data file format
VERSION 0.7
FIELDS x y z intensity
SIZE 4 4 4 4
TYPE F F F F
COUNT 1 1 1 1
WIDTH 1234
HEIGHT 1
VIEWPOINT 0 0 0 1 0 0 0
POINTS 1234
DATA ascii
2.6524329 4.400588 5.5050659 0.25
2.8302517 4.3280287 5.5612278 0.625
3.1337099 4.3837976 5.5292912 1
3.4923658 4.3688993 5.5366306 1.6666666
3.8402116 4.4279299 5.5218287 0.75
4.0444107 4.4380951 5.5706706 1
4.2868872 4.3289909 5.6924787 1.5
5.1894002 4.4028692 5.5174704 2
5.5922246 4.3529277 5.64149 1
5.9817824 4.4756894 5.6458125 1
6.39007 4.2465034 5.5761619 1.1666666
6.7838025 4.451314 5.4714332 1
7.31703 4.3310976 5.5152159 1
7.9838891 4.3850121 5.4967766 4.5
8.2452354 4.4035883 5.5163355 2
8.540597 4.4421873 5.4471927 12.333333
8.7901955 4.4021215 5.5120296 19.5
-13.655593 4.5571589 5.4268684 3
-9.050704 4.7988262 5.5688095 2
-8.2719812 4.7930622 5.65449 2
-7.7211981 4.7259045 5.6300564 2.25
-7.2906408 4.6778769 5.6315646 3.5833333
-7.1394992 4.6974807 5.6051226 2.25
-6.8406029 4.6883059 5.4916639 3
-6.5811844 4.7047224 5.5197206 3
-6.1256013 4.7129054 5.5428324 2
-5.8350019 4.6679363 5.5630894 2.5
-5.5158343 4.6588311 5.5423145 2.4166667
-5.1506443 4.7139859 5.5341034 2
-5.0783658 4.7104478 5.5522194 1
-4.5097237 4.5671706 5.4403825 1
-4.4781337 4.5104852 5.4178143 1
-3.9103837 4.7724352 5.6545033 1
-3.6263614 4.6216063 5.509975 1
-3.4656637 4.7159967 5.5112367 1
-3.1020174 4.7482433 5.6398239 1.375
-2.8477404 4.6586695 5.5586586 1.1666666
-2.5888731 4.7384858 5.510807 1.4550509
-2.3237443 4.6860256 5.5434408 1.2976563
-1.8893732 4.7423792 5.5638018 1.8603098
-1.6178298 4.68432 5.6131587 2.4565973
-1.3236237 4.6818399 5.5280886 3.2447917
-0.94842005 4.6081514 5.571784 2.629313
-0.82263374 4.5528612 5.6448283 7.178833
-0.40428028 4.5951319 5.5931993 6.9267006
-0.19252819 4.6383038 5.5109186 1.717448
0.10955629 4.5952377 5.4549685 0.97222221
0.44361895 4.5589237 5.4635649 0.5
0.64482993 4.5279322 5.4491911 1
0.96774656 4.5192661 5.5393791 1.875
1.3061152 4.5806088 5.4733934 1.5
1.6271019 4.5530853 5.436801 2.5
2.0303364 4.5359936 5.4539905 2
2.1826491 4.5199604 5.5135527 1.109375
2.6095862 4.5528803 5.4601946 0.83333337
2.9472485 4.5426145 5.441052 0.75
3.0329995 4.5537319 5.451921 1
3.4209185 4.5486312 5.4740696 1.375
3.8335752 4.575284 5.5127935 0.4375
4.0770812 4.5553389 5.4751339 1
4.3435926 4.5868444 5.4618425 1
4.530129 4.5639224 5.4762855 0
4.9547424 4.6612186 5.5190802 5.666667
5.2110543 4.6516829 5.5213547 4.7591143
5.5680513 4.6265478 5.5936689 1.425
5.8525543 4.6542664 5.5569839 1.8385416
6.147893 4.6708584 5.6136999 1.625
9.4655552 4.7831125 5.5317879 14
9.7986155 4.6625009 5.6056414 3.625
10.104242 4.6322842 5.6459231 6.5
10.39006 4.602448 5.5788336 2
10.704046 4.6479592 5.5278101 1.375
10.843689 4.673975 5.4948387 2.9375
-9.2176218 4.8070102 5.6624527 2
-7.7550645 4.8178763 5.6720524 1
-5.5225515 4.9221716 5.5911512 2
-5.3379478 4.8572431 5.6629405 2
-4.6431646 4.953455 5.63942 1
-4.274972 4.8820677 5.5989289 1.5833334
-4.0300922 4.8743839 5.6018896 1
-3.6976781 4.8496799 5.5858269 2.0833335
-3.0201123 4.805553 5.5205531 3
-2.5603595 4.828619 5.5670977 2.5
-2.2336819 4.9268837 5.5530319 1.4583334
-1.9490747 5.0222549 5.6210136 1.75
-1.6357423 4.8913231 5.5959015 2
-1.3924382 4.8415232 5.5431542 1.6428571
-1.1201794 4.8345528 5.5565758 1.5208333
-0.89646536 4.822237 5.5294552 1.5
-0.41778362 4.844213 5.53862 1.7222222
-0.13861629 4.8389792 5.4999514 2
5.0073695 4.8027506 5.5668573 3
5.3677182 4.8630614 5.5461345 1
6.7620277 4.908134 5.6561942 1
7.5056028 5.0588064 5.6872663 4
8.2987509 5.0908551 5.6771436 1
9.2587824 4.8745961 5.6739163 2
9.5224094 4.825109 5.5940032 1.375
10.146396 4.8860021 5.5850916 3.5
10.381139 4.8796353 5.6378441 1
-8.7825718 -30.123423 5.9882965 8.333333
-6.6921964 -30.139435 5.9297099 8
-6.4676418 -30.114735 5.9188728 8
-6.092432 -30.102633 5.871316 8.916666
-5.8375149 -30.12554 5.8862081 10
-5.5512004 -30.125971 5.9319715 8.5
-5.2266278 -30.105015 5.7886581 7.25
-4.614171 -30.096367 5.7403398 8.25
-3.9867263 -30.104065 5.8568859 7.5
-3.7857432 -30.091515 5.7876158 9.5
-3.4389 -30.088348 5.8633118 7
-3.0885837 -30.088989 5.7988129 8.666667
-2.3437951 -30.050705 5.7293262 7.5
-8.6563911 -29.770826 5.9865808 14
-6.5923576 -29.999481 5.9937963 7
-9.0333433 -29.275894 5.951611 3
-3.8157425 -25.031773 5.9590316 3
-4.4181013 -24.79846 5.7512026 7
-7.6664248 -24.115723 5.9681005 4.5
-5.1160851 -24.080158 5.7357445 5
-5.0568333 -24.040016 5.7345972 4.5
-5.4568653 -23.730457 5.7575364 5.5
-5.2779961 -23.782913 5.7379208 4.530304
-5.0812426 -23.963913 5.7094893 4
-7.5911407 -23.547428 5.8714142 5
-5.7285476 -23.416906 5.7560978 4.25
-5.4930677 -23.595055 5.728548 4.8536501
-5.3517847 -23.65836 5.7297826 4.75
-9.4971094 -23.335932 5.719265 3
-7.6006179 -23.219448 5.7580161 6.15625
-6.0100546 -23.135151 5.7401991 4
-5.7601533 -23.347155 5.7433434 4.2312055
-4.8270493 -23.259516 5.728785 9
-7.5094914 -22.902519 5.7482166 5
-6.1110349 -23.023556 5.7261162 3.7851562
-2.2538559 -22.552668 5.8056588 5
-1.521769 -22.558889 5.9410505 6
-1.3427994 -22.565613 5.9755516 6.75
-0.96104789 -22.513607 5.9132257 6
-0.65115178 -22.641537 5.9740939 3
-0.50754446 -22.583157 5.9778681 5.6601562
-0.088923857 -22.559786 5.9392028 5.1875
0.36577499 -22.629318 5.9135513 5.125
2.494895 -22.526474 5.8219047 3.375
3.2009339 -22.502323 5.7243586 4
3.4855447 -22.614801 5.7231154 5
3.8761263 -22.631721 5.7233219 3
4.1359711 -22.544514 5.730773 4
4.4109545 -22.549595 5.7301388 4.5
4.556973 -22.612928 5.7046142 4
5.2069178 -22.571342 5.725069 4
-5.9065289 -22.254009 5.9552689 7
-3.7953017 -22.207466 5.9934573 6
-3.2788537 -22.307447 5.7790799 5
-2.7737443 -22.459459 5.7965255 4
-2.6016374 -22.212917 5.959609 5.25
-2.1562159 -22.276501 5.9856987 10
-1.8591714 -22.322258 5.9768128 5.9960938
-1.6820712 -22.281395 5.9697189 5.2111764
-1.3474972 -22.373365 5.975461 4.7054095
-1.1123157 -22.271709 5.9629049 5.6196966
-0.63154995 -22.222883 5.9822383 4
-0.38454968 -22.267242 5.9563665 4.5485501
-0.18300793 -22.273325 5.9454951 4.2056847
0.1650202 -22.357378 5.907979 4.84375
0.4811244 -22.390427 5.9393044 5
0.83561856 -22.349735 5.8956923 4.4649992
1.009783 -22.30228 5.8822708 5.6917515
1.4569615 -22.265862 5.8710699 4.2977695
1.6512513 -22.305489 5.7496796 6.0989227
1.841074 -22.288771 5.7577276 5.367516
2.1401029 -22.305857 5.8364582 4.5721436
2.5770569 -22.275101 5.8124633 4.359375
2.7783957 -22.268627 5.7672615 4.125
3.5642948 -22.34691 5.7154279 3
3.6788239 -22.444658 5.726635 3.25
4.0906105 -22.34716 5.7296762 3.9453125
4.401824 -22.272984 5.7185211 4.4055991
4.5324869 -22.406101 5.7126136 3.875
5.0150867 -22.397018 5.7270708 3.75
5.1809883 -22.340317 5.7186241 3.71875
-15.80848 -22.028406 5.9287105 5
-15.348113 -22.024643 5.8665118 6
-15.098649 -22.02067 5.9542961 5
-14.883675 -22.017879 5.9948077 6
-12.460127 -22.010523 5.9690623 5
-12.084798 -22.033598 5.8685379 4
-11.834564 -22.069622 5.8683958 5.125
-11.596884 -22.030254 5.9165926 6.125
-11.26968 -22.016787 5.931675 5.7128906
-10.927567 -21.990627 5.8604703 5.6167297
-10.652243 -22.011911 5.8876381 5.6971421
-10.335506 -22.02261 5.9493127 6.1954703
-10.112921 -21.973724 5.886488 6.6030326
-9.7234583 -21.978065 5.8347101 5.671526
-9.3703794 -21.976501 5.9290819 6.654767
-9.2299576 -21.992233 5.8736978 6.0380559
-8.8102446 -21.983677 5.8985181 6.5755849
-8.44063 -21.948029 5.7663012 7.7273903
-8.2364044 -21.96776 5.8987479 6.831481
-8.0081854 -21.98089 5.8360734 4.9710116
-7.6433554 -21.927835 5.7921743 4.5634608
-7.4090919 -21.963173 5.8152132 5.3089142
-6.9648695 -21.951691 5.9419174 6.0446825
-6.6929946 -22.021946 5.9286604 7.4343109
-6.3500252 -21.963526 5.9083037 5.8112059
-6.1956196 -21.978287 5.9300189 6.9794016
-5.8064413 -22.006252 5.7843833 6.2113314
-5.6189699 -21.961666 5.7547121 6.5050249
-5.2690291 -21.944324 5.7960939 7.1268826
-4.9635668 -21.985548 5.7910995 6.4507542
-4.5678215 -21.975962 5.8485723 7.765965
-4.3513117 -21.96225 5.9057655 6.630012
-4.0843806 -21.981518 5.8726101 5.1770325
-3.7622843 -21.974827 5.88236 5.68928
-3.4944582 -21.981434 5.8323798 6.4516649
-3.0734096 -22.013788 5.9217463 6.011198
-2.8970904 -21.955 5.8681707 5.2244902
-2.5227032 -21.954765 5.7921433 6.9403281
-2.1852422 -21.974958 5.725606 7.9737024
-1.9374402 -22.088123 5.882998 5.3566313
-1.6206884 -21.938824 5.8761358 5.8892155
-1.3141944 -22.009186 5.7696428 6.5175028
-1.1128219 -21.979937 5.802907 5.9572024
-0.61900628 -21.999222 5.8145571 6.2106705
-0.36610502 -22.08716 5.8131061 5.6538305
-0.1258056 -22.069473 5.8711624 4.5439591
0.19789335 -22.021164 5.8839388 5.7551823
0.52259898 -21.979958 5.7217369 4.0394635
0.74053228 -22.014145 5.8843818 6.9019985
0.97297072 -21.962608 5.845715 5.507205
1.4504259 -21.99081 5.8086271 4.9715667
1.7075661 -22.105446 5.8218918 4.3300843
1.8903995 -22.021248 5.8412991 4.6457062
2.2487392 -22.108883 5.832324 4.0722656
2.5697985 -22.004778 5.7852945 3.5257416
2.7661643 -22.069485 5.8031836 4.609375
3.1218219 -21.975491 5.7622414 5
4.1515985 -22.030453 5.7299376 3.4560547
4.3400946 -22.036411 5.7055759 4.1004562
4.6540642 -22.021288 5.7080336 3.9375
4.988493 -22.049458 5.7605171 5.34375
5.1679039 -22.052486 5.7165556 5
-9.5423784 -21.89875 5.7294154 5
-8.4521837 -21.881508 5.9786367 5.75
-8.277195 -21.840595 5.8818789 6.625
-7.8476009 -21.891411 5.7881765 6
-7.566638 -21.779175 5.7648988 5.2697716
-7.447464 -21.869347 5.7619696 4.84375
-6.8010521 -21.784721 5.8598108 5.5
-5.4395247 -21.867414 5.9486732 5.5429688
-5.2721643 -21.864326 5.9287314 6.1222649
-5.0927129 -21.883434 5.9752846 5
-4.5381246 -21.855728 5.9748707 4.5
-4.3613729 -21.876446 5.9087777 5.125
-3.9846272 -21.832069 5.9370918 5.75
-3.8188796 -21.849644 5.9355574 4.8632812
-3.4784248 -21.868305 5.7992196 5.5
-3.0275376 -21.653524 5.9603062 2
-2.4932613 -21.816338 5.8570194 7.1442337
-2.2906783 -21.787899 5.8208594 8.6124296
-2.0131497 -21.878288 5.9058433 5.6015625
-1.7257079 -21.834316 5.9881358 4.0401001
-1.3890305 -21.709656 5.9860449 3.9550784
-1.0399568 -21.852678 5.8333173 4.0409856
-0.84165728 -21.781216 5.7468185 9.0815926
-0.37569165 -21.773594 5.8745394 3.6600158
-0.12645362 -21.818394 5.9108992 4.1329594
0.13765743 -21.793579 5.904953 3.90625
0.52214289 -21.773962 5.8944645 3.4324951
0.83275735 -21.669704 5.9041433 3.9511518
0.96254295 -21.658371 5.8763652 4.0791068
1.4831619 -21.729912 5.8364553 3.9077454
1.5882338 -21.714317 5.8406863 4.1486511
1.8512783 -21.738876 5.8160915 4.2642965
2.2333617 -21.795155 5.8711982 4.4375
2.5863247 -21.774097 5.8248606 4.3847656
2.9251447 -21.758194 5.7568445 4.40625
3.1293068 -21.728966 5.7548141 4.0859375
3.3705189 -21.770477 5.7455378 3.5625
4.4556131 -21.873096 5.7245598 3.25
4.6096621 -21.829176 5.7338257 4.53125
4.949419 -21.708332 5.7067223 4.0625
5.1900253 -21.772078 5.7097549 4.75
6.6943712 -21.882217 5.7697625 5
-15.363515 -21.513412 5.9423084 5.5
-7.608654 -21.406437 5.8095894 3.9804688
-7.4811897 -21.434738 5.7978292 4.3125
-5.3183661 -21.43482 5.9839048 4.5292969
-4.4355717 -21.350348 5.9793067 5
-3.7605488 -21.441221 5.921217 3
-2.7488732 -21.352617 5.8328013 5
-2.462389 -21.498745 5.8613195 4
-2.3083587 -21.419411 5.909884 5.3166981
-1.8495255 -21.342859 5.9408493 4.5
-1.6471344 -21.448549 5.9807425 4.9879065
-1.3613838 -21.476673 5.9701576 5.8968291
-1.0272659 -21.401178 5.9545851 4.5277424
-0.7441957 -21.533878 5.9125032 3.875
-0.36443809 -21.441336 5.9619999 4.8116655
-0.13915867 -21.45439 5.9221282 3.3706694
0.19645694 -21.47311 5.9086723 3.5078125
0.48390704 -21.464628 5.9180169 3.640625
0.77509558 -21.49633 5.8625112 4.8455877
0.98059487 -21.515833 5.9099998 3.969451
1.4598719 -21.372023 5.8412156 4.0048828
1.7100146 -21.404793 5.8290882 4.7644572
1.8541183 -21.410278 5.8287807 4.8958902
2.3082848 -21.51013 5.7867594 3.921875
2.5557392 -21.528784 5.7787189 2.71875
2.7949669 -21.504581 5.8067026 3.8125
3.1798677 -21.452793 5.7433891 3.8291016
3.4333189 -21.418777 5.7406635 2.8945312
3.6596909 -21.468445 5.7477512 3.625
4.5447936 -21.494522 5.798842 1
4.9235201 -21.437826 5.709013 4
-7.586987 -21.076382 5.7503033 5.1077576
-7.4925842 -21.071167 5.7389359 4.5
-5.4079638 -21.127417 5.9850011 3
-5.3042407 -21.149464 5.9900217 5.0078125
-3.8174806 -21.243177 5.9741116 4
-3.1805933 -21.06706 5.9959011 4.5625
-2.512795 -21.209274 5.9936438 4.5
-2.3520336 -21.15752 5.9010792 4.2283344
-1.838208 -21.189285 5.985384 4.5
-1.6190109 -21.232159 5.9838705 4.75
-1.3654525 -21.187172 5.9792366 3.9179859
-1.1124077 -21.182663 5.9580655 4.6367188
-0.81695431 -21.180855 5.8111057 4
-0.33235395 -21.238495 5.9484301 3.4375
-0.22145317 -21.146076 5.9311523 5.2019424
0.42253661 -21.225842 5.8220987 2.625
0.69577438 -21.112808 5.7995539 4.1572266
0.96532035 -21.221642 5.8880353 2.78125
1.4469856 -21.25473 5.8563309 3.5
1.6898757 -21.264431 5.837779 4.1152949
1.9232612 -21.208229 5.804049 4.2712059
2.4795461 -21.131466 5.7676716 4.3125
2.8868194 -21.087219 5.7780395 4.59375
3.1410751 -21.234324 5.755971 3.875
3.4139929 -21.183453 5.7995424 3.765625
3.6290386 -21.22611 5.7371531 4.0234375
3.9784384 -21.193851 5.7358217 3.75
4.2086229 -21.217699 5.7653604 4
4.7304811 -21.267078 5.7330356 2.5
4.8158135 -21.273396 5.7005219 2
-14.267431 -20.842186 5.8841267 5.0625
-11.3685 -20.739828 5.7463799 3
-11.006721 -20.714993 5.71696 4
-10.251095 -20.796261 5.8618479 4
-9.7437305 -20.767073 5.8870945 3.5
-8.5465221 -20.728275 5.7798929 3
-7.6289167 -20.809809 5.7389183 3.371233
-7.4596343 -20.995756 5.7361746 4
-5.2514038 -20.857376 5.9727192 5
-3.7594199 -20.784742 5.95436 3.40625
-3.2204771 -20.860506 5.9705372 3.5
-2.8623469 -20.77524 5.9960527 4
-2.4170952 -20.893488 5.9560876 3
-2.2921629 -20.782413 5.8857026 4.8671875
-1.7429137 -20.712883 5.9934068 4
-1.2242413 -20.745842 5.9536099 4
-0.79092193 -20.791578 5.8625956 4
-0.4744308 -20.762569 5.9798961 3.203125
-0.16867074 -20.732609 5.8016248 4.09375
0.26097912 -20.790306 5.8981442 4.375
0.42556936 -20.804783 5.9173594 3.40625
0.7392875 -20.819223 5.8388033 3.3789062
1.0143204 -20.845238 5.8526182 4.328125
1.3518673 -20.789246 5.8768563 3
1.6516942 -20.764421 5.8229117 4.25
1.9592118 -20.718929 5.8112392 3.7578125
2.3094182 -20.864677 5.8387518 5.25
2.5572228 -20.851805 5.7782159 2.8489583
2.843091 -20.828356 5.7871428 3.590327
3.0704813 -20.86282 5.7232323 3.6679688
3.4738283 -20.758429 5.733861 3.0610352
3.6693854 -20.765018 5.7637072 3.8789062
4.1003532 -20.763973 5.7179995 3.78125
-15.900231 -20.611887 5.9270749 5
-15.858656 -20.674252 5.9505253 5
-14.440019 -20.681215 5.8851495 4
-13.937734 -20.663391 5.8290133 5
-12.097122 -20.657404 5.8026886 4
-11.222441 -20.670881 5.7081223 5
-10.659124 -20.6684 5.7191396 4
-9.7456751 -20.670603 5.8108778 4.25
-8.5765047 -20.632626 5.7778654 4.25
-8.3897352 -20.67194 5.773747 3
-7.5717402 -20.495485 5.7595387 4.7996273
-7.4482942 -20.548256 5.7570691 4.625
-7.1756921 -20.640827 5.7828655 5
-3.9141243 -20.687635 5.7947998 2.5
-3.7603636 -20.643953 5.9164505 3.1923828
-3.5352855 -20.476873 5.9809165 3
-3.180625 -20.64846 5.8757505 3.6875
-2.7789862 -20.411264 5.9805784 3
-2.5722606 -20.617912 5.9419188 4
-2.3247705 -20.565405 5.8848162 3.3945312
-1.9952533 -20.461025 5.9912901 4.375
-1.6513863 -20.422215 5.9902225 3.953125
-1.3206018 -20.447105 5.9761238 3.7342205
-1.1531303 -20.448542 5.9752789 3.7384882
-0.75491083 -20.655472 5.8866129 3.1899033
-0.5233835 -20.49157 5.9442425 3.8520346
-0.13052143 -20.488522 5.9094992 3.8234463
0.11556199 -20.4921 5.9134336 3.9075394
0.57336766 -20.435219 5.9188662 3.184068
0.73985577 -20.507442 5.9465895 3.5405023
1.0326675 -20.595783 5.8808203 3.1873391
1.431945 -20.468323 5.8080683 3.4767795
1.7122397 -20.506737 5.8449516 4.0131531
1.8635159 -20.489105 5.8225508 4.0929976
2.239712 -20.444992 5.8038874 3.7198386
2.5286098 -20.465981 5.7414727 6.5184631
2.872304 -20.520931 5.7710814 3.576426
3.1586671 -20.463139 5.7343855 3.2444644
3.5193624 -20.470406 5.7157192 3.5555959
3.7178478 -20.555229 5.7370353 3.1718016
4.0939388 -20.468781 5.7201471 3.7942433
4.2706103 -20.493649 5.7111731 2.90625
4.5641222 -20.45475 5.7245226 3
-7.5738735 -20.168598 5.7598677 5.3388672
-7.4511433 -20.217079 5.7646542 4
-5.3363395 -20.25601 5.9875255 4
-3.8111317 -20.205101 5.9404507 3.3125
-3.0586004 -20.184244 5.9923754 4.5
-2.7833581 -20.195835 5.9928603 3.9550781
-2.4831052 -20.206352 5.9692597 4.25
-2.2240722 -20.286148 5.9892559 3.953125
-1.9082748 -20.215824 5.9766655 4.1530762
-1.6247863 -20.302197 5.9691696 3.4648757
-1.2440279 -20.286373 5.958777 3.8292742
-1.1060898 -20.226732 5.9743929 3.508111
-0.66671789 -20.203979 5.9612107 3.9417801
-0.47928852 -20.153599 5.9714894 3.6541438
-0.1932326 -20.292004 5.9061842 3.9394538
0.094456002 -20.268219 5.9501791 4.2197604
0.5128268 -20.330465 5.9006395 2.7604141
0.80149364 -20.236572 5.93085 3.0003681
0.985394 -20.207512 5.8916216 3.9101644
1.4504626 -20.259441 5.8275833 3.8117409
1.5728616 -20.250431 5.8282523 3.993602
1.9098079 -20.211229 5.8029947 3.873579
2.1534224 -20.287468 5.8353071 3.2569823
2.5760179 -20.22681 5.7637 4.2566557
2.825084 -20.24229 5.7433224 3.7490883
3.2497983 -20.218065 5.7544355 4.0289383
3.5351489 -20.303619 5.7218161 4.4532356
3.6402323 -20.300957 5.7410784 3.8712139
4.1297207 -20.271225 5.7152801 4.0835066
4.2784514 -20.208031 5.7099671 3.9148762
4.5674715 -20.256508 5.7248592 4.796875
5.0352364 -20.178555 5.7240286 7
-7.6075072 -19.980556 5.7686925 5.2165623
-7.4502702 -19.83386 5.7314687 6
-5.3345647 -19.975508 5.9706516 4
-3.8201268 -19.932621 5.9713111 3.46875
-3.1333566 -20.035997 5.9942207 4.5
-2.8047233 -19.916225 5.9974947 3.875
-2.4765553 -19.972113 5.9710007 2.5
-2.3516538 -19.959717 5.9224644 3.5242844
-1.9184222 -20.020443 5.9760485 4.0638022
-1.5428338 -19.979366 5.9689736 4.1415796
-1.3913701 -19.981201 5.9505491 4.9610853
-1.1099293 -19.979137 5.9884949 4.5293193
-0.64370406 -19.917305 5.9590745 2.9385743
-0.46357131 -19.99332 5.9486637 3.7384713
-0.14856696 -19.888136 5.9341817 3.9648302
0.053631295 -19.939957 5.9223852 3.43396
0.53367448 -19.848804 5.8905153 3.0716324
0.76833367 -19.952896 5.8283358 3.6674814
1.0545006 -19.975338 5.8749247 2.7207532
1.4503429 -20.01576 5.8264256 4.3859863
1.6219527 -20.028961 5.8307877 3.6898198
1.8534534 -19.909508 5.8038788 3.5292926
2.2109661 -19.88913 5.8171053 4.25
2.4988019 -19.86751 5.7888131 3.7232742
2.8717546 -19.941994 5.7638855 3.9616659
3.2557085 -19.959106 5.7396522 4.2691708
3.3573604 -19.938829 5.7374859 5.0551291
3.6974292 -19.970255 5.7366753 3.7816081
4.1129341 -19.912697 5.7144794 4.2223358
4.3306227 -20.035328 5.7057862 4.140625
4.6279221 -19.965954 5.7149286 3.6875
4.8546562 -19.921606 5.7156067 5.578125
5.1181936 -19.841429 5.7164474 4
-8.8577614 -19.784691 5.9556327 6
-7.5882387 -19.735899 5.7245731 4.59375
-5.3301296 -19.581211 5.9913206 3.625
-4.297163 -19.607946 5.8558493 4.5
-3.7487273 -19.72517 5.9436083 3.4815674
-3.4872346 -19.538853 5.9838896 4.75
-3.0850902 -19.611412 5.9851727 4.5625
-2.881238 -19.571899 5.9632936 4
-2.4804661 -19.612556 5.9697886 4.5128527
-2.3371615 -19.54641 5.8975077 4.0129967
-1.9242704 -19.601336 5.9950643 4.0072327
-1.7176543 -19.619162 5.9885311 4.2386718
-1.408967 -19.700249 5.9752359 4.2331676
-1.030561 -19.68623 5.9611988 4.0359058
-0.65209526 -19.691847 5.9479532 3.4469757
-0.49367607 -19.738773 5.9350028 3.8088746
-0.1336036 -19.612001 5.9035225 3.3699181
0.022963813 -19.64156 5.9036875 2.6377032
0.53335118 -19.674728 5.8683095 4.0985107
0.85206282 -19.61726 5.9077454 3.7650239
0.97198218 -19.616409 5.8658075 4.5353317
1.4779592 -19.57925 5.8537884 3.7724035
1.5452601 -19.566219 5.7946253 4.6709127
1.8491756 -19.683823 5.7845521 4.4574299
2.1580734 -19.734999 5.7850866 3.2291183
2.5366282 -19.624805 5.8470316 3.1818035
2.893527 -19.739307 5.7623901 4.5768614
3.1912301 -19.607712 5.7518501 3.7457926
3.4118359 -19.716774 5.7341671 5.0353136
3.6629701 -19.738308 5.7264476 3.8921351
3.9705079 -19.632624 5.7211533 4.1049738
4.2875013 -19.631908 5.7070417 3.84375
4.6991568 -19.75354 5.7157097 4
5.0320396 -19.608942 5.7128305 3.375
5.1943994 -19.717026 5.7206554 2
-9.6271982 -19.235416 5.9304576 4
-7.5781288 -19.392935 5.7510576 3.8617916
-7.46984 -19.442499 5.7754035 2
-5.2564573 -19.340103 5.9664335 4.5
-4.675077 -19.413912 5.7148361 4
-3.7751822 -19.222363 5.9502435 3.6134644
-3.4183276 -19.471951 5.9832621 4.5
-3.2072253 -19.333752 5.9721966 3.5
-2.8962717 -19.39422 5.9823918 4.171875
-2.4735429 -19.420557 5.969718 3.9295654
-2.2423995 -19.329338 5.8601847 3.6414261
-1.9112439 -19.392437 5.9805303 4.4395056
-1.6509635 -19.282276 5.9657612 3.5631146
-1.4391927 -19.428185 5.9608727 4.7010665
-0.95593047 -19.325367 5.9363766 3.5351968
-0.71436465 -19.362707 5.9529905 2.8979447
-0.43039361 -19.272499 5.9495521 3.998019
-0.13537037 -19.361996 5.9012976 3.2229595
0.064641729 -19.301861 5.9068584 3.5284235
0.52654588 -19.393461 5.9021854 3.2256165
0.7834872 -19.286055 5.9170151 3.1284149
1.0374663 -19.421232 5.8552122 3.3099465
1.4092155 -19.361288 5.8340917 3.9810672
1.6340995 -19.390532 5.7956972 4.1208515
1.8531485 -19.31706 5.7862253 3.8600945
2.1930695 -19.28186 5.8443499 3.4694989
2.5892701 -19.280045 5.7509508 4.919909
2.888454 -19.317833 5.7872272 3.6197965
3.2132487 -19.293896 5.7227912 3.9923582
3.4632671 -19.26601 5.7204065 3.9476311
3.7736118 -19.307856 5.7237701 4.2793531
4.0196218 -19.364836 5.7282834 3.8191028
4.2780905 -19.295279 5.7131729 4.1259766
4.5508661 -19.45289 5.735045 4.25
4.8838506 -19.413202 5.7189379 3
5.2069674 -19.211807 5.725503 3.5
-7.6058035 -19.066875 5.7622271 3.5664062
-7.4974537 -19.129257 5.7615113 4
-6.3094873 -19.042673 5.8255949 4
-5.8621869 -19.088346 5.8087544 4
-5.3253736 -19.125729 5.9603939 3.8261719
-3.9270303 -19.134356 5.9368834 3
-3.7539992 -19.072865 5.9362679 3.4135485
-2.4575415 -19.059237 5.9426665 3.9515786
-2.3240619 -19.065598 5.9499483 4.0043941
-1.8825839 -19.121019 5.9922762 4.278306
-1.6453443 -19.092609 5.9802742 3.8619027
-1.2435546 -19.075661 5.9608521 4.1400604
-0.95794737 -19.022263 5.9421062 4.2299476
-0.76263475 -19.100746 5.9560661 3.463001
-0.44452494 -19.081715 5.9328222 3.9992051
-0.16809647 -18.994354 5.9129295 4.4375806
0.14513475 -18.96751 5.9303946 3.9701998
0.55961037 -19.007727 5.860508 3.2003384
0.78898281 -19.087337 5.952446 4.2864165
1.0680835 -19.141308 5.8428221 3.2903039
1.3323079 -19.022121 5.8301315 3.6947784
1.5973721 -19.046902 5.8169184 4.4181938
1.8983901 -19.055534 5.7946529 3.3722472
2.2116857 -19.032967 5.8286991 3.5514016
2.6387243 -19.134499 5.7836533 4.4980664
2.9527109 -18.944649 5.7618437 2.4371531
3.1044183 -19.099236 5.7395487 4.3549995
3.422987 -19.059807 5.7473645 3.9080653
3.6453938 -19.082989 5.7206097 3.4915791
4.0154924 -18.975973 5.7138724 4.0112228
4.2890949 -19.036682 5.7110329 4.0523682
4.7061462 -19.034832 5.7223616 4
5.0872383 -18.908627 5.818922 4
5.1215525 -19.129789 5.7449002 5
-7.4679022 -18.822411 5.7589688 4
-5.2754841 -18.680569 5.9379921 4.1893978
-4.4635711 -18.604866 5.8765264 4.3333335
-3.7978163 -18.828405 5.9801064 3.8512664
-3.1091762 -18.708376 5.9632502 4
-2.8816893 -18.758856 5.9389997 4
-2.486042 -18.832359 5.9839845 3.9724877
-2.2591078 -18.74966 5.96626 4.5677376
-1.8253894 -18.857521 5.9901867 5.7903643
-1.6727135 -18.777851 5.9726787 4.1993022
-1.3063949 -18.793703 5.9806437 5.2429409
-1.1340292 -18.668005 5.969522 4.0109239
-0.72506642 -18.69174 5.9740648 3.828352
-0.43698043 -18.658146 5.9395313 4.3712153
-0.11654535 -18.738657 5.9279871 4.6014695
0.059863221 -18.743217 5.8845787 3.2173829
0.52073133 -18.795189 5.8572097 2.8124671
0.77974856 -18.747276 5.8763647 3.9716709
1.0409358 -18.84708 5.8456097 4.217165
1.4464347 -18.713112 5.8172112 3.554332
1.652245 -18.746305 5.8124642 3.4468672
1.8917708 -18.775686 5.7940784 3.4545698
2.1750998 -18.710773 5.8201799 4.1251345
2.5557046 -18.746014 5.7371635 3.5392303
2.9805279 -18.770607 5.7570872 2.5025423
3.0561371 -18.73885 5.7326288 3.8779418
3.5022144 -18.694891 5.7213898 3.5155752
3.756923 -18.658611 5.7220774 3.5631886
3.9506202 -18.686829 5.7245932 3.3265433
4.3282175 -18.647259 5.7279139 4.234375
4.6330166 -18.732594 5.7076254 3.78125
4.8673067 -18.795277 5.7298756 4.25
8.2649174 -18.651245 5.9990559 5
-8.7168865 -18.30542 5.9386625 3
-7.5592127 -18.507065 5.7570038 3.7532754
-7.4975138 -18.328039 5.7989807 3
-5.4377022 -18.488398 5.8760185 7.1046686
-5.3256335 -18.485725 5.9202108 8.0585308
-3.7790251 -18.506332 5.9719043 3.8767369
-3.456284 -18.419172 5.9641609 4.5
-2.8077645 -18.486315 5.9833498 4
-2.4098406 -18.419903 5.8441305 3.6357422
-2.3096666 -18.508223 5.9083104 4.6697063
-1.9191986 -18.47117 5.9687672 3.9550781
-1.6330161 -18.466496 5.9863896 4.275991
-1.2841921 -18.488878 5.9649677 5.6939907
-1.1424971 -18.490955 5.9678521 4.0543728
-0.62972903 -18.38179 5.9504404 3.3751025
-0.41152567 -18.508671 5.9407654 3.6341839
-0.11591636 -18.417973 5.9093266 4.2128615
0.054495919 -18.381699 5.8970165 2.5725582
0.57355624 -18.500687 5.7929072 4.0095658
0.71866572 -18.519524 5.743443 4.0278273
0.97225833 -18.512621 5.7905588 4.7207594
1.4646331 -18.413918 5.8490829 3.5082178
1.6272309 -18.400898 5.8165245 3.8355989
1.906265 -18.419479 5.8083305 3.6821373
2.2373343 -18.406422 5.8369408 3.1464844
2.485568 -18.424839 5.8045702 3.4788835
2.9633543 -18.443558 5.740715 2.9745843
3.1119599 -18.427689 5.7248249 3.9507289
3.4403079 -18.451591 5.7145786 3.9326985
3.7519715 -18.431135 5.73703 3.4436255
3.9962602 -18.453945 5.717802 3.384567
4.3549795 -18.351955 5.7068949 3.9960876
4.585495 -18.348387 5.7124939 3.796875
5.1165504 -18.516766 5.7198591 2.5
-15.782289 -18.011864 5.9481411 5
-15.419733 -18.032099 5.9171152 4.5
-15.273687 -18.026566 5.9348664 4
-14.820731 -18.032312 5.8171945 3
-11.158882 -18.047544 5.7940507 5
-10.83394 -18.025278 5.7846518 4
-8.5184126 -18.012241 5.86832 4
-7.6167603 -18.191156 5.7393227 3.5055771
-7.4661236 -18.053904 5.7769275 4
-6.2133684 -18.011633 5.9571733 3
-5.3220186 -18.072144 5.9694552 3.3151042
-3.7399492 -18.202835 5.9467564 4.1019092
-3.1595795 -18.133444 5.8916721 4.0585327
-2.9083095 -18.140934 5.8759532 3.5
-2.4569838 -18.15521 5.8937182 2.9283855
-2.3550124 -18.098722 5.8863897 3.2735252
-1.927052 -18.098232 5.9953184 3.7106323
-1.6274211 -18.184963 5.9808559 3.9267943
-1.3776494 -18.136654 5.962966 4.077363
-1.0762981 -18.172703 5.9666181 4.2565584
-0.62872875 -18.195448 5.9503365 3.2456477
-0.3458814 -18.169571 5.9302406 3.8948369
-0.19362023 -18.161119 5.9169779 3.8098621
0.046617221 -18.152275 5.9099951 3.3347213
0.56969732 -18.198425 5.8929291 3.5040283
0.77987206 -18.121176 5.8861933 3.1305518
1.0023576 -18.184204 5.8787923 3.3062272
1.4475557 -18.201498 5.8058167 3.2577512
1.6402783 -18.202984 5.8266935 3.9560614
1.8778447 -18.132393 5.7914953 3.2893906
2.2056465 -18.238342 5.8604507 3.1977825
2.5258799 -18.210125 5.7904525 2.8535478
2.9478226 -18.093128 5.7377291 3.315093
3.0953741 -18.191383 5.7217741 4.0917377
3.5163789 -18.130299 5.735724 3.8555741
3.6245246 -18.235226 5.7160606 3.8236022
4.0645394 -18.117901 5.7251987 3.0820382
4.3327255 -18.105293 5.7128444 3.2604165
4.6708488 -18.218815 5.7464781 3.3611112
-15.75901 -17.993059 5.9953103 4
-12.846776 -17.992599 5.7188344 5
-11.583887 -17.998108 5.7636328 5
-11.273522 -17.915081 5.7387576 4
-8.7927065 -17.989925 5.7110071 3
-8.563508 -17.932043 5.7852993 3.875
-7.9909239 -17.906868 5.7376428 6
-7.5926275 -17.837545 5.7400141 3.8744643
-7.4015498 -17.93914 5.7395887 6
-6.7441497 -17.75983 5.9697142 3
-6.1703677 -17.941467 5.8641348 2.3125
-5.3213825 -17.845707 5.9899297 3.3564453
-3.9113131 -17.849289 5.9449797 2.25
-3.784616 -17.876156 5.9529986 3.1786079
-3.4504809 -17.933666 5.8486495 2.75
-3.1937239 -17.951363 5.8670034 2.984436
-2.7634265 -17.947906 5.9940224 4
-2.4324272 -17.785669 5.9295554 3.6460602
-2.3492651 -17.834572 5.8467264 2.9604869
-1.9154668 -17.964577 5.9861221 3.4453125
-1.5765239 -17.945766 5.9850216 3.7906251
-1.3616153 -17.971535 5.9593039 4.2412181
-1.0904984 -17.965113 5.971899 3.621222
-0.87825924 -17.776861 5.8126187 4.228075
-0.37879026 -17.931126 5.9308591 3.0184326
-0.24393931 -17.93576 5.9159722 3.1208336
0.12183653 -17.834282 5.8912978 4.6458335
0.52598673 -17.882193 5.7795429 2.8535156
0.68686163 -17.91256 5.7520823 3.8026953
1.036782 -17.976707 5.8413343 3.2497478
1.4409237 -17.949091 5.8780565 2.875
1.6174109 -17.979881 5.8213606 2.9923203
1.9372897 -17.959251 5.7666583 2.9924927
2.1757734 -17.893375 5.8359351 2.390625
2.636271 -17.946161 5.7614431 3.2060547
2.9586627 -17.948328 5.7462683 3.2519169
3.0514612 -17.948637 5.7414751 3.6180878
3.4701681 -17.88887 5.7228169 3.0776982
3.7723556 -17.948799 5.7113404 3.3623016
4.0827708 -17.962059 5.7225375 3.782836
4.3104973 -17.930914 5.7056065 4
-7.6549253 -17.58601 5.7472906 2.3366814
-7.4799595 -17.555983 5.7394562 3
-5.3421779 -17.472923 5.9719014 3.0269775
-4.0748386 -17.699495 5.9009743 3
-3.7429895 -17.598461 5.9342761 3.868763
-3.2851849 -17.433355 5.9777026 3
-2.4254229 -17.451767 5.8125362 2.25
-2.3211808 -17.627338 5.8826408 3.2723927
-1.9546168 -17.589588 5.9858708 3.40625
-1.6724193 -17.566673 5.9830604 3.4537516
-1.3341219 -17.455711 5.9448814 3.1493673
-1.0406353 -17.472364 5.9176927 3.0940552
-0.68729258 -17.484943 5.9275656 2.9559283
-0.49077067 -17.421608 5.9585104 2.983331
-0.0895354 -17.568911 5.9371786 2.0279081
0.21922174 -17.515245 5.9180517 2.8123972
0.57651007 -17.457588 5.8697124 3.1022234
0.74896073 -17.487141 5.8614435 3.4035864
1.0181687 -17.434637 5.876369 3.1914752
1.4717751 -17.446497 5.8371458 2.863883
1.6920062 -17.459084 5.8225751 3.4392595
2.0001454 -17.460636 5.8350959 2.8785987
2.1909266 -17.480331 5.8024549 3.7965581
2.5866966 -17.446865 5.7651787 2.5288522
2.8641715 -17.46011 5.7488718 3.0287952
3.1125131 -17.420128 5.7421021 3.0005572
3.4902039 -17.495438 5.7307329 3.3172226
3.802073 -17.461189 5.7243867 2.9884162
3.9600668 -17.462196 5.7229271 2.9902344
4.3590531 -17.527336 5.7192392 2.5
4.5985909 -17.457752 5.7061996 3.5
5.0582628 -17.502506 5.7773132 4
5.2498379 -17.554583 5.7258472 4
6.4164238 -17.444929 5.7672968 6
-7.592124 -17.220345 5.7586837 3.9494736
-5.8530102 -17.131758 5.9883637 2.5
-5.6672087 -17.196035 5.979095 1
-5.2721558 -17.308582 5.9404278 3.3125
-4.9224792 -17.173458 5.9324708 2
-4.58183 -17.271582 5.8904934 2
-4.4254351 -17.247208 5.930397 2
-4.0659075 -17.224333 5.9009275 2
-3.8020298 -17.163349 5.903173 3.25
-3.3377881 -17.23423 5.9496732 4.75
-2.7712195 -17.130377 5.8262138 3.5
-2.5475454 -17.224291 5.9446812 2.9692383
-2.2836127 -17.299698 5.8745298 3.8960321
-1.9000537 -17.307398 5.9933691 3.0305037
-1.6388229 -17.241577 5.9772749 3.2495584
-1.2950931 -17.220844 5.9649525 3.8576384
-1.1499554 -17.250362 5.9452448 3.4254649
-0.65730226 -17.290516 5.9654198 3.1189299
-0.48302773 -17.304966 5.9681997 3.3668189
-0.20304845 -17.265022 5.8952312 3.2627692
0.18023479 -17.208384 5.8757257 3.2652159
0.55519211 -17.252102 5.8555603 2.805434
0.82842803 -17.240314 5.8658113 3.5663388
1.0172375 -17.167965 5.8535171 3.7279625
1.3847873 -17.163509 5.7880654 3.1605067
1.7057383 -17.31184 5.7947302 3.9854808
1.9143761 -17.181351 5.8055601 3.1641238
2.1538725 -17.309746 5.8078804 4.5474362
2.6695144 -17.311771 5.732667 3.1428328
2.9028172 -17.323895 5.7456961 3.1585169
3.194741 -17.315239 5.7393885 3.422375
3.4359269 -17.274591 5.7150097 3.4316006
3.6559186 -17.256878 5.7186556 4.1057415
3.9374146 -17.349222 5.7086086 3
4.3989182 -17.16535 5.7203054 3.75
4.637495 -17.299957 5.7036519 3
4.9580374 -17.166809 5.7200241 3.9375
5.1947069 -17.205124 5.730917 2.5
7.645792 -17.243813 5.9976945 4
-7.6316843 -16.989534 5.7348266 4.0203452
-5.3135529 -16.907745 5.9861031 3.875
-4.6446157 -16.928579 5.7931995 5.5
-3.7162409 -17.023891 5.9553099 3.1290436
-3.4125986 -16.931446 5.9449987 3.0833333
-3.0349727 -16.932735 5.9790878 3.5625
-2.8061614 -17.030764 5.9793649 3.96875
-2.4469523 -16.899385 5.9485092 4.2462521
-2.2830129 -16.950165 5.9418411 3.634253
-1.9065405 -16.963795 5.976932 5.0904579
-1.646781 -16.929897 5.9676909 4.316895
-1.2735329 -16.936512 5.9615097 4.4749975
-1.0123968 -16.991066 5.9115243 3.119235
-0.62376177 -16.94231 5.933115 3.1646843
-0.40730017 -16.90995 5.9389534 3.3039267
-0.19381282 -17.00942 5.9141226 3.4809604
0.1832591 -16.930866 5.875452 3.7493644
0.57101679 -16.849457 5.897419 2.634239
0.77475297 -16.903599 5.8431687 3.6418438
1.0341284 -17.006115 5.845418 3.3983254
1.3540056 -17.009991 5.8189116 4.3938751
1.685431 -16.837526 5.7949061 3.6640327
1.9108225 -16.859577 5.8030605 4.0391941
2.2516541 -16.917973 5.7752819 5.2353525
2.6198912 -16.872124 5.7411337 3.4894361
2.8081775 -16.942764 5.7334528 4.3042631
3.2001486 -16.903942 5.7348404 3.559382
3.3787227 -16.915783 5.7128792 3.8675473
3.8669863 -16.838154 5.7227201 2.6875
4.095232 -16.910622 5.705792 2.7854598
4.319665 -16.894665 5.7310896 3.25
4.5557647 -16.999035 5.7509971 3.3125
4.9212852 -16.98184 5.7118425 3.875
5.1772537 -16.869209 5.7422018 3.5
6.7416306 -17.086134 5.7018905 3
-25.155415 -16.679955 5.8617225 11
-7.5978789 -16.671616 5.7502165 4.2264404
-5.4225044 -16.641346 5.9584513 2.25
-5.2777729 -16.720388 5.9833341 3.3286381
-4.9911909 -16.679449 5.9856634 4
-3.8160989 -16.53845 5.9811516 2.4507675
-3.4406357 -16.567951 5.9492378 3.609375
-3.080246 -16.713306 5.974699 3.671875
-2.8345633 -16.663073 5.97855 3.8886719
-2.5232949 -16.729267 5.9518929 3.2779369
-2.2954149 -16.702738 5.8944387 3.5928764
-1.9498057 -16.716362 5.9909086 4.2626414
-1.6943216 -16.59037 5.9850011 4.0525308
-1.2633301 -16.744835 5.9629378 4.2459521
-1.127176 -16.690819 5.9598017 4.1933184
-0.76183581 -16.643911 5.9355249 3.2698946
-0.50291216 -16.748674 5.9418707 3.930203
-0.2550745 -16.705093 5.9055147 3.4313047
0.02604926 -16.655054 5.880105 2.7646708
0.56981784 -16.639191 5.8526545 2.1220207
0.7233479 -16.734221 5.8689528 4.5616922
1.0506563 -16.634842 5.8580055 3.3338461
1.4167004 -16.606503 5.8044262 3.6534448
1.595722 -16.688164 5.8185034 4.0273323
1.8585095 -16.769371 5.8062506 3.4789023
2.2494051 -16.682766 5.7943544 3.8755012
2.6446269 -16.658516 5.7570648 3.6927145
2.8051839 -16.623947 5.7445321 3.5048466
3.0600929 -16.690533 5.7289972 3.0013433
3.5234125 -16.541603 5.7221985 3.094635
3.7049103 -16.560024 5.7202082 3.6764159
3.9659743 -16.697845 5.7053089 3.1381836
4.4123383 -16.629717 5.7438102 3.09375
4.5672379 -16.691536 5.7495236 3.671875
4.8796568 -16.599012 5.7132845 3.75
5.1297865 -16.652479 5.7760067 3
5.4389105 -16.708426 5.725872 3.5
-7.802351 -16.286572 5.8848519 4
-7.5816965 -16.438789 5.7489672 4.2139487
-5.4189916 -16.365154 5.9725027 2
-5.2991977 -16.381065 5.9775801 3.1798096
-4.8015852 -16.348127 5.9057913 3
-4.5298858 -16.41683 5.9635892 4
-3.7899806 -16.469551 5.9777145 3.2515531
-3.0870194 -16.355385 5.9650183 4.9177246
-2.916575 -16.259645 5.9860325 3.9349976
-2.448894 -16.352694 5.9598417 4.3127546
-2.2809496 -16.315857 5.8790884 3.7739265
-1.9656267 -16.296223 5.9877195 4.0469542
-1.7018452 -16.384615 5.975667 4.8025303
-1.2608172 -16.405933 5.9684124 4.6007509
-1.1711246 -16.397091 5.9637537 4.1563778
-0.63428533 -16.290833 5.9408817 2.9928107
-0.47711182 -16.277534 5.9393702 4.2618055
-0.23441845 -16.302162 5.9072533 4.2059135
0.02433555 -16.331902 5.8913975 2.9819365
0.58294737 -16.410528 5.9034243 2.5124834
0.79965413 -16.362288 5.90271 3.211627
0.95431185 -16.363468 5.8777885 3.7555103
1.4396577 -16.436636 5.8214936 3.731262
1.6695143 -16.378967 5.8010473 3.9092789
1.9694228 -16.274944 5.8070869 3.2034526
2.2693117 -16.252041 5.7901525 3.1807222
2.666079 -16.384674 5.7572756 3.3181307
2.8353148 -16.433762 5.7288961 4.8738313
3.2299299 -16.285933 5.7451353 3.1822917
3.479171 -16.341591 5.7167339 3.7120235
3.8075457 -16.400429 5.7170343 5.0788994
4.013751 -16.34334 5.7133384 3.6355186
4.4016209 -16.362043 5.7834654 4.046875
4.7124004 -16.398767 5.7369828 3.5
4.9610395 -16.409039 5.7291489 3.3125
5.1966338 -16.350613 5.7004976 3
5.508532 -16.497824 5.7388277 2
-7.5848718 -16.093966 5.9381676 9.6027832
-5.479938 -16.013012 5.9645648 2.625
-5.346015 -16.111572 5.9637094 2.9868836
-3.9239707 -15.925655 5.8872929 2
-3.8175476 -16.041965 5.9606943 2.380147
-3.0850625 -16.16024 5.9842625 4.0500002
-2.9224198 -16.143047 5.9936209 3.5
-2.417006 -16.121399 5.8101835 2.1002502
-2.38061 -16.120598 5.8782673 4.6306496
-1.9868271 -16.143974 5.9668255 4.0566406
-1.62936 -16.141256 5.979156 4.0359979
-1.2930902 -16.151714 5.9686432 3.6434536
-1.1143007 -16.127184 5.9450474 4.5138636
-0.63916242 -16.13265 5.9402857 2.4896178
-0.43170917 -16.154161 5.9417925 4.180182
-0.095559046 -16.164322 5.9166002 3.7483537
0.12622781 -16.09824 5.8865848 2.5430908
0.59298551 -16.087257 5.8656688 1.8234863
0.75793374 -16.144772 5.8749886 3.4854488
1.0487802 -16.088032 5.8376646 3.2111208
1.4613012 -16.120403 5.8276029 2.7713866
1.5849853 -16.114471 5.80443 3.8295305
1.9655142 -16.110449 5.8077545 2.9546006
2.3089662 -16.159214 5.7878942 3.0602405
2.4575272 -16.163265 5.7736073 2.5703125
2.8759656 -16.02504 5.7514229 2.75
3.1885633 -16.065889 5.7201753 2.4967535
3.4476237 -16.087696 5.716331 3.3170342
3.7864211 -16.132978 5.7230964 4.4531937
4.0049553 -16.102867 5.705246 3.3795953
4.2997875 -16.115925 5.7225199 2.6875
4.9473786 -16.117083 5.7015901 3
-25.164528 -15.849506 5.8268538 8
-7.5955772 -15.752431 5.7937374 4.6713104
-5.417532 -15.71042 5.8822432 1
-5.3113708 -15.716124 5.9668646 3.6478791
-3.9081528 -15.738483 5.9119053 2
-3.8014483 -15.7913 5.8792367 3.1210394
-2.4115472 -15.813948 5.8002958 2.1586914
-2.3193398 -15.7313 5.8128581 2.2998741
-1.5120829 -15.881588 5.9897571 4
-1.3247215 -15.823096 5.9645553 3
-0.90398705 -15.704038 5.773315 3
-0.8494426 -15.674671 5.7770939 3.5214844
0.65292263 -15.828836 5.7141476 3.3227539
0.93678969 -15.89868 5.8503332 3
1.4001434 -15.857331 5.7926273 2.5
1.6477044 -15.870006 5.8196468 3
2.1737964 -15.893654 5.71 4
3.1724095 -15.818589 5.7621255 2.625
3.4514039 -15.845557 5.7301869 2.5
4.0190201 -15.834189 5.7896428 4
-15.795756 -15.334106 5.9398274 4.125
-15.171832 -15.306118 5.9149923 5
-14.896512 -15.334677 5.8130417 4
-13.543788 -15.321798 5.8213043 4
-12.719977 -15.319589 5.7791114 3
-12.596544 -15.305055 5.763381 4
-11.924478 -15.347676 5.7137656 3
-11.116161 -15.351667 5.7136164 3
-10.869236 -15.341254 5.7326183 2.5
-10.761899 -15.32041 5.7104363 3
-9.739212 -15.30983 5.9458842 3
-7.5916171 -15.394047 5.7460804 3.9150584
-7.4721365 -15.398596 5.8634133 3.5
-5.3443966 -15.542213 5.971489 1.65625
-3.7775736 -15.536047 5.8690491 4
-2.4111629 -15.548363 5.8125029 1.5
-2.3506944 -15.566525 5.8551416 3.1028647
-0.90799737 -15.527613 5.7251425 2.5
-0.87625527 -15.506824 5.7178249 1.71875
2.1038713 -15.576097 5.742167 3
3.6059291 -15.592198 5.7370224 3
-16.353758 -15.199761 5.9786472 6
-15.936014 -15.216182 5.9195266 3.5
-15.770167 -15.271515 5.9231234 3
-15.186747 -15.234551 5.9240532 4
-14.708755 -15.292093 5.8544436 3
-14.534782 -15.281818 5.8120213 3.5
-14.154255 -15.195802 5.8769646 2
-13.433146 -15.264516 5.8174767 4
-12.789845 -15.266731 5.8356047 4
-12.104965 -15.251616 5.7401948 3.25
-11.91473 -15.274088 5.7266159 4.21875
-11.603246 -15.266742 5.7683568 2
-11.266502 -15.239113 5.7304754 2.625
-10.904466 -15.235579 5.735034 3.625
-10.662287 -15.251803 5.7048044 2.25
-9.9704456 -15.202499 5.9075871 2.5
-9.7506075 -15.232018 5.8554201 2.4079657
-9.4245701 -15.179865 5.8463106 2
-9.0157251 -15.152479 5.7132182 2
-8.8593445 -15.236343 5.799953 4
-8.5297346 -15.194617 5.9719214 2
-7.6239562 -15.241877 5.8531842 5.7949219
-6.361845 -15.1835 5.7215333 2
-6.2222519 -15.268664 5.8348823 1.4726562
-3.7976832 -15.205193 5.7347851 2.9609375
-3.3002608 -15.172956 5.7204285 2
-3.2278624 -15.224176 5.7401552 1.8415527
-25.117985 -14.997968 5.790422 9
-7.5906982 -14.905478 5.8727107 6.5
-16.470535 -14.546315 5.9780259 2
-7.6957731 -14.618686 5.7853484 3.234375
-7.4664774 -14.507072 5.740603 5
-0.71952665 -14.455187 5.9321346 3
-0.38954914 -14.408204 5.8851571 6
3.6796045 -14.404749 5.7255707 3
-8.125926 -14.144921 5.8429537 9
-3.8531718 -14.114186 5.9751902 4.5
-3.0248153 -14.207085 5.9854145 5.5
-2.8371205 -14.152828 5.9825716 4
-2.5314002 -14.141968 5.9177995 3.984375
-2.1460249 -14.16375 5.9876089 5.1807098
-2.018611 -14.119738 5.9685988 5.1404152
-1.6643053 -14.133932 5.8722978 4.1199145
-1.2936244 -14.109915 5.9332323 4.3812208
-1.0488195 -14.135593 5.9571533 3.9176738
-0.68035692 -14.211225 5.9352427 4.5937939
-0.53521568 -14.127855 5.9084759 3.7349834
-0.21811017 -14.132969 5.8994823 3.8986223
0.21597332 -14.184237 5.8699245 3.6350667
0.55016446 -14.184891 5.864481 2.5704513
0.85265458 -14.208288 5.8680911 4.167613
0.93568373 -14.149493 5.8176174 4.0077457
1.471545 -14.141588 5.7793493 3.7371929
1.5585568 -14.106474 5.7873755 4.559411
1.9728265 -14.177946 5.7837582 5.148097
2.2213805 -14.175364 5.7751217 6.3989072
2.4692709 -14.147446 5.7522507 2.7083335
2.8884122 -14.202562 5.737793 3.469378
3.141587 -14.141858 5.7209177 3.5817223
3.4392538 -14.198843 5.709012 4.3536234
3.6556854 -14.171381 5.7096996 4.1006222
4.0233893 -14.170309 5.7241068 4.5
4.633194 -14.12442 5.7109833 4.458333
4.812634 -14.109023 5.716332 5
5.1525998 -14.293255 5.7002411 5
-24.799622 -13.853963 5.9562907 7
-23.812578 -13.820827 5.9376545 7.875
-23.183361 -13.893862 5.8245106 6.5
-22.910255 -13.860297 5.8581443 7.1666665
-22.672518 -13.883999 5.9076958 6
-22.331923 -13.916439 5.8888373 6
-22.069187 -13.893083 5.8425198 4
-21.690809 -13.903279 5.9135094 6
-17.669132 -13.980097 5.9715443 4
-17.288143 -13.963673 5.9623604 3.625
-17.008661 -13.98513 5.9838314 4.9375
-16.675278 -13.934578 5.9744153 4.5
-16.350681 -13.932743 5.9522228 4.25
-16.066095 -13.887003 5.9599037 4.375
-15.708902 -13.911911 5.97509 4.90625
-15.528797 -14.006764 5.9645185 4
-15.093957 -13.857079 5.9415026 4.46875
-14.879476 -13.841913 5.9534998 3.5087891
-14.468862 -13.958099 5.8728971 4.28125
-14.307587 -13.96329 5.9276285 4.5694447
-13.938697 -13.911617 5.9116116 3.75
-13.690851 -13.924592 5.9562941 5.140625
-13.387743 -13.898299 5.975647 5.765625
-13.076801 -13.858209 5.9575977 5.2910156
-12.680323 -13.899837 5.9115596 5.6458344
-12.397034 -13.910034 5.9099932 6.8941965
-12.11237 -13.889998 5.9532614 5.6448975
-11.804812 -13.858977 5.8388271 4.4496813
-11.510513 -13.932498 5.8312745 6.9808388
-11.263556 -13.862484 5.8089385 5.0799961
-10.973257 -13.985154 5.7453704 3.8541665
-10.614681 -13.915197 5.9347353 6.0586624
-10.371635 -13.845853 5.863554 2.7791061
-10.129071 -13.864819 5.7693601 3.5273044
-9.6749153 -13.855776 5.7403941 4.0838304
-9.4230843 -13.849836 5.8828545 3.8576899
-9.1800442 -13.860275 5.7970629 3.6924801
-8.8187904 -13.84617 5.9206204 7.4014344
-8.4702282 -13.869035 5.8417196 7.6413789
-8.2193146 -13.848112 5.891861 6.318809
-7.9782286 -13.864298 5.7968898 5.4748454
-7.6904278 -13.872988 5.8823457 4.25
-7.3716002 -13.839916 5.8302264 5.5464306
-7.0737472 -13.953376 5.8627892 6.3676758
-6.7824249 -13.867426 5.9492378 5.4856496
-6.4197073 -13.828877 5.8821478 4.5020146
-6.1181159 -13.839577 5.7931557 9.4054937
-5.9276218 -13.840796 5.7729445 6.6489992
-5.6138477 -13.820332 5.717216 11.047
-5.200901 -13.828985 5.8306675 8.106926
-4.9546242 -13.843002 5.8383098 5.8877287
-4.6751509 -13.881929 5.8210878 9.4402952
-4.4374952 -13.907213 5.8770256 6.9847436
-4.0222359 -13.823952 5.8105264 7.3813686
-3.6685388 -13.923651 5.8986793 4.2870531
-3.4151649 -13.94195 5.9494457 4.8035159
-3.0601044 -13.956695 5.9586191 4.0756707
-2.7583518 -13.965569 5.9358006 4.8407574
-2.6809487 -13.93629 5.9203124 6.1031857
-2.1520486 -13.865876 5.8874364 7.0181818
-1.9413232 -13.963045 5.8835287 4.603754
-1.5957146 -13.935386 5.9326229 4.9814482
-1.3434429 -13.941231 5.8819609 4.3367209
-1.1423609 -13.943645 5.9232025 4.6986551
-0.61794198 -13.893606 5.9266868 3.9904466
-0.46757543 -13.965578 5.8695855 4.4180222
-0.16023251 -13.997517 5.8648453 4.9673758
0.12149648 -13.945211 5.7925334 4.5095797
0.55811018 -14.003564 5.8844957 2.3705854
0.84859812 -13.981196 5.820116 3.7510343
0.99683559 -13.974571 5.7400112 4.9094763
1.4906356 -13.979687 5.7757101 5.331461
1.6189618 -13.94202 5.752902 4.7574902
1.9733021 -14.037605 5.7553496 4.811821
2.3324168 -13.975174 5.7658114 5.4604206
2.5005789 -13.825521 5.7721958 4.1963902
2.7856264 -14.056306 5.7217994 3.1627402
3.2117205 -14.06191 5.7130284 3.6751132
3.5078053 -13.98248 5.7038851 4.0169387
3.6173558 -13.997061 5.7154531 3.8998017
3.9657016 -13.874496 5.708931 4.3007812
4.3245487 -13.996836 5.7200861 4.541667
4.5135403 -13.957617 5.7198434 4.5
4.880805 -13.892368 5.7381134 4.5
5.3293333 -14.062052 5.7208529 3.5
-25.146067 -13.764081 5.9343977 7
-22.21804 -13.742503 5.7821584 6
-21.798656 -13.798716 5.8327003 6
-11.616816 -13.783309 5.9799266 6
-11.240089 -13.758263 5.8203621 4.5
-10.59575 -13.7935 5.7390571 6
-10.063432 -13.795568 5.8182082 9.5
-9.7466736 -13.743886 5.8523197 5.458333
-9.4817572 -13.75692 5.8946133 4
-9.2112827 -13.788363 5.8187728 5.5
-8.9602966 -13.787527 5.8636646 4.5
-8.510479 -13.76222 5.7908506 7.296875
-8.3029404 -13.765673 5.9136057 4.2544622
-7.837101 -13.71826 5.7416382 4.375
-7.6141987 -13.579397 5.8083563 3.8222985
-7.3652315 -13.709265 5.8552999 6.2161455
-6.7537637 -13.757198 5.9084291 7.3562498
-6.1030388 -13.785667 5.8276758 6.505208
-5.8941865 -13.772469 5.8758259 5.9375
-5.5697317 -13.740686 5.8511 5.092905
-5.3521438 -13.658519 5.9491811 4.5213537
-4.9206853 -13.768051 5.9011555 5.2705078
-4.6567135 -13.746243 5.91957 4.9391928
-4.4413166 -13.702003 5.9093838 6.2407894
-3.9530301 -13.72685 5.8736405 5.0161242
-3.6850929 -13.718304 5.9776115 5.0793447
-3.4862344 -13.762169 5.9414935 5.98667
-3.0950081 -13.788099 5.9114604 4.90804
-2.9040031 -13.683266 5.9957609 4.6159778
-2.5007086 -13.560865 5.9068418 4.606082
-2.2650776 -13.632454 5.8284402 10.47599
-2.030782 -13.757915 5.9420099 8.6840506
-1.544914 -13.701653 5.9390659 4.9716072
-1.3821124 -13.580606 5.9562912 5.2373929
-1.1207018 -13.611357 5.9546094 4.7917166
-0.75388134 -13.663002 5.8597894 2.7982335
-0.47649252 -13.682688 5.923564 3.7181911
-0.13471515 -13.67176 5.8818855 4.4176006
0.047193971 -13.725075 5.8673882 3.4781184
0.57352626 -13.702972 5.8803635 3.1441896
0.83244216 -13.646674 5.8676066 4.2196498
1.000025 -13.547512 5.8438854 4.0522337
1.4417747 -13.763731 5.7958355 3.6233113
1.663702 -13.55789 5.7856588 4.8231134
1.9829422 -13.726822 5.7568812 4.833951
2.1671252 -13.677145 5.7460032 3.7930665
2.6221793 -13.701367 5.7421021 4.540092
2.7572823 -13.667646 5.7331839 3.0272982
3.1361713 -13.711854 5.7226048 3.653646
3.5398846 -13.750175 5.7211866 2.4293966
3.8613272 -13.661285 5.7128716 2.7235591
3.9187753 -13.53871 5.7087665 3.4446869
4.3548489 -13.633007 5.7161431 4.25
4.866725 -13.688931 5.7099953 3.875
-25.171734 -13.30354 5.7847829 6
-14.383303 -13.368083 5.9136438 2
-7.5946431 -13.336142 5.7840271 5.4551392
-7.0508213 -13.431757 5.9786735 4.5
-6.801116 -13.396461 5.8555737 4.125
-5.52564 -13.287132 5.9550457 4.3125
-5.3146753 -13.316305 5.9567156 4.6427078
-4.847487 -13.411957 5.9761553 4.5
-4.7235622 -13.400665 5.9173813 3.5999999
-4.3382092 -13.455381 5.8505068 6
-4.0014 -13.413862 5.9489574 1
-3.7940717 -13.332195 5.9513264 3.7634592
-3.4351826 -13.434528 5.979763 4.6744795
-3.0567646 -13.419008 5.9930716 4.2046361
-2.8937709 -13.358509 5.994524 4.7614584
-2.5814931 -13.416462 5.966043 4.2205667
-2.3244257 -13.351456 5.8434629 5.3382111
-1.9248277 -13.312727 5.9911647 4.7615452
-1.6542594 -13.342236 5.9649878 4.786602
-1.4497304 -13.279322 5.971055 4.416398
-1.0406563 -13.289768 5.9566975 4.5047679
-0.61717474 -13.361484 5.9344788 2.8039007
-0.46410024 -13.295336 5.9388733 3.7277443
-0.094891213 -13.319021 5.875412 3.9684269
0.060145132 -13.299282 5.8927536 2.9229128
0.56729412 -13.417316 5.8593822 2.6778998
0.77714026 -13.257137 5.8270435 3.8000622
1.0460231 -13.36664 5.817421 4.6194515
1.4660132 -13.276748 5.7855263 4.3623323
1.6506495 -13.3878 5.7936153 4.4573083
2.0121329 -13.430553 5.7881174 3.4118967
2.2592516 -13.297075 5.7789583 4.4182587
2.6611147 -13.334755 5.7457323 4.2023497
2.7975068 -13.309566 5.7192254 4.2980032
3.1431785 -13.284941 5.706049 3.3512535
3.4287944 -13.34015 5.7333288 3.1445312
