# .PCD v0.7 - Point Cloud Data file format
VERSION 0.7
FIELDS x y z intensity
SIZE 4 4 4 4
TYPE F F F F
COUNT 1 1 1 1
WIDTH 1265
HEIGHT 1
VIEWPOINT 0 0 0 1 0 0 0
POINTS 1265
DATA ascii
-19.408419 5.243434 1.0712104 9.8500795
-11.769493 5.2423048 0.99035209 3
-11.42329 5.1979556 0.98073059 8.5104342
-11.318102 5.202528 1.0234358 7.5804148
-10.261677 5.186739 1.0292618 1.8867188
-10.126904 5.1417098 1.0128884 11.727865
-9.7482777 5.3313808 1.0217584 5.3606853
-9.4345999 5.3687906 0.93030727 8.2883396
-9.2525263 5.2940979 0.93706906 35.231773
-8.2048836 5.1514006 0.9869653 23.54668
8.2984629 5.1420536 1.0556754 5.25
8.4555264 5.3081088 0.9418236 12.333333
8.7009602 5.3914657 0.94515085 4
19.700172 5.1567879 0.95344567 5.166667
19.8473 5.23107 1.0289606 2
29.629887 5.2989483 1.081073 9.6773663
-19.41659 5.5944352 1.006315 8.5099096
-11.726999 5.5344133 0.93930399 2
-11.46868 5.4360008 1.0632069 7
-11.348307 5.5625391 0.9921701 28.5
-10.555134 5.4963989 1.0510796 11.570312
-10.38028 5.5800371 0.97784197 20.625
-9.6437511 5.4703426 0.93827993 12.116667
-9.4673109 5.4513988 0.94279909 14.925078
-9.2062645 5.4878259 0.93735576 27.601835
-2.0034876 5.6336985 0.91540003 2.125
8.2904224 5.693984 0.90029037 15
8.4536839 5.5015135 1.0191035 23.752083
10.036622 5.5951295 0.99935555 4.5
10.283726 5.6488032 1.0912912 6.5
29.623138 5.6014986 0.95038104 8.8695412
-19.41304 5.778646 1.0599276 9.0294714
-11.436137 5.9734788 1.0289903 2
-11.266975 5.7948012 1.1347487 10.336805
-9.3974991 5.7297511 0.97976494 9.9375
-9.20714 5.7499881 0.9152481 4
-1.8735268 5.9138699 0.94630134 7.6916666
-1.349066 5.884573 0.99446416 9.7749996
4.3509717 5.9752498 0.90303904 33.5
7.4533796 5.9698973 1.0961382 3.0416665
7.9025002 5.953156 1.0099798 20
8.2288771 5.8010578 1.1487138 11.71875
8.4098845 5.72925 0.95089674 19.666666
8.8811646 5.9296803 0.9869234 4.1666665
9.2340527 5.9042101 1.089239 3.9166667
9.4789534 5.8454161 1.018591 4.833333
9.7371101 5.7541428 0.90655923 13
10.056202 5.7230496 0.95694983 7.5
27.028521 5.7307363 0.91590822 5
29.647726 5.8979111 0.99187648 8.0674772
29.718592 5.9825211 1.064827 9
-19.417793 6.2070041 1.0319279 8.4179878
-11.535357 6.094698 0.95630968 2.3203125
-11.243433 6.025003 1.0197296 11.527958
-9.0192442 6.198842 0.99892819 21.299999
-8.9280748 6.1963682 0.96709764 14.916666
-1.8366973 6.0880337 0.95877683 15.194011
-1.7019917 6.1184907 0.96093053 22.605865
-1.3688576 6.2439785 1.0768366 7.0625
0.74835879 6.2221699 1.0519741 8.3166666
0.94134563 6.2825942 1.0318898 0
2.6046715 6.2265205 0.96721554 21.473982
2.9122977 6.1601567 1.1298068 4.4569263
3.4763131 6.0419044 1.0844383 5.75
3.7564468 6.0483031 1.1163747 1.2916667
4.0737944 6.1046705 1.0271525 9
4.3778181 6.0889311 1.0577331 3.25
4.5798063 6.1066608 0.90511596 36
4.9441414 6.0714445 1.0110732 12.75
5.1162643 6.1399555 1.1595575 1
5.5876055 6.2316284 1.042823 18.125
5.731729 6.231895 1.1147405 1
6.5401444 6.1992984 0.90264195 22
6.8111176 6.183507 0.98862398 4.046875
7.003161 6.208077 1.0002017 5.2222223
7.409555 6.2211037 1.0411803 18.132812
7.6994753 6.0846195 1.0430721 3
8.0221672 6.0863676 1.0910823 8.666667
8.3137493 6.1752295 1.0182931 4.8000002
8.6104918 6.096705 1.0006843 2.75
9.0014677 6.1207333 1.0288035 1
29.62822 6.1744447 1.0900176 7.7794991
29.703989 6.1103711 1.0756086 9
-19.426857 6.449976 1.0790991 9.2447796
-11.539127 6.3095121 0.94555336 1
-11.229549 6.3452554 1.0151399 9.416666
-10.992809 6.4936848 0.98132992 3.3541667
-9.5460529 6.5603743 0.99674743 2.4166665
-9.2585201 6.3373089 1.1293908 0
-8.7539902 6.4180436 1.0332603 1.138889
-8.5399818 6.5240335 1.0198473 7
-1.6506947 6.3720846 0.94773942 14.48125
-1.363986 6.3497806 1.0836418 2.0349603
-1.1359179 6.5192575 0.97906595 6.5810747
-0.67317283 6.5575628 0.97283185 8
-0.52302498 6.5363441 0.93468565 20.412689
-0.055012994 6.4427247 1.1684632 14
0.11744759 6.4358916 1.1699806 6.5
0.83129567 6.3664398 0.93085545 7.892313
0.99239731 6.3998652 1.0397758 4.199585
1.3947988 6.5471044 1.0061631 8
2.2967753 6.4888763 0.96489012 17.648991
2.4869635 6.3414788 0.9831835 13.636364
5.6455216 6.3453226 0.94611549 5
5.9386668 6.4057045 1.0170766 9.75
6.1477714 6.4252186 1.0129735 18.1875
6.3565731 6.4087605 1.0194075 12.584872
6.8110142 6.4541674 1.0170637 3.0833335
7.0739937 6.4824877 1.0689745 10.945312
7.2954597 6.3936558 1.0810187 11.541643
7.5908265 6.403286 1.021682 5.0861545
7.8515649 6.4073462 1.03645 1
8.2980957 6.4370012 0.98761129 15
29.613417 6.4684501 1.1439683 12.335399
29.708954 6.5298939 1.0454266 5
-19.41345 6.8184772 1.0495878 8.2615204
-10.614321 6.8599701 0.94312322 2
-9.3729124 6.8253841 0.98117304 7.6732345
-9.2650814 6.8822403 1.0700824 8.833333
-1.7797896 6.6021681 0.91808701 9.5
-1.2525361 6.7243271 0.93469673 9.8439455
-0.98497587 6.652072 0.96969926 6.245666
-0.69395316 6.7713466 1.0254233 9.3821115
-0.47496197 6.7629557 1.0315627 5.9309077
-0.28520435 6.7390685 0.96964419 20.833334
0.15195376 6.8231835 0.98573804 4.6296296
0.37898517 6.7124267 0.99259973 2.2888889
0.72659028 6.8930054 1.1733946 1
1.1317371 6.7556386 1.0297624 15.954578
1.4352642 6.7686729 1.0399392 7.4583335
1.6405008 6.6870685 1.057793 10
2.0980668 6.67768 1.0210881 11.928572
4.7389951 6.8468275 1.1087809 24.686617
4.9146962 6.8430877 1.1159066 25.902267
5.1180496 6.7864118 1.1343131 1.0102506
5.8649225 6.6587181 0.92683661 29
6.2660499 6.6462555 1.0225104 3.688971
6.3863893 6.6842313 1.0108029 12.478772
6.8201876 6.6245122 1.059275 3
7.4235005 6.6597376 1.0322572 15.875
7.5752778 6.7232575 1.0325892 1
8.5418711 6.7690368 1.0067755 23.962122
29.625359 6.7123337 1.0728782 8.2164974
-19.431019 7.0635719 1.0640119 8.5101757
-17.879606 6.9954786 1.1346813 4
-11.481836 6.9958835 1.0153859 29.859055
-11.308856 7.1156297 0.96003079 64.954659
-11.01893 6.9671564 1.1983768 21.5
-10.722694 7.0655823 1.053036 1.7083334
-10.464992 7.1590967 0.95035225 3
-9.3203869 6.984374 1.1002163 2.125
-9.1302643 6.9861054 1.0257219 7.4759932
-8.7501354 7.090333 1.133518 16.670872
-8.6584759 7.080884 0.99528015 8.7244463
-8.1488523 6.9410453 0.91858435 4
-7.9094477 7.1300364 1.0639253 13.25
-3.3484151 7.1404166 0.96453071 38.448357
-3.1366813 7.1047606 1.0788842 51.543163
-2.9299765 7.0075808 1.0893109 30.68877
-1.2392995 7.1531305 1.0433526 3
-0.69775581 7.0026875 0.96723676 5.09375
-0.51997674 7.0092516 0.95132506 3.0403471
-0.124164 7.0056868 0.98571038 9.7677956
0.043884285 6.9256368 0.96469432 13
0.45594138 6.9286413 1.1038249 12.5
0.85935229 6.9258995 1.1605401 0.14285715
1.148958 7.1773119 0.99736381 16.540541
1.416446 7.0078468 1.053224 9.5832863
1.5193212 7.023325 1.057848 0.80000001
4.4904022 7.0491333 1.163275 55.179787
4.6533813 6.9553719 1.1755023 45.047905
4.8315539 6.9271708 1.1753838 40.413517
5.1551094 6.9136682 1.0951089 3.90625
6.2869978 6.9072523 0.9714908 0
8.6604156 7.0106778 1.050547 12.5
8.8364677 6.9584289 0.98640674 18.344135
9.1617641 7.0832739 0.92835414 10.4
21.392494 7.1846581 1.0625931 2.875
28.49391 7.1457386 0.90035415 5
29.595932 7.0890779 1.039423 11.073997
-19.438816 7.3402843 1.0398099 8.3327904
-17.413368 7.4759426 0.942774 3
-17.324162 7.4328957 1.0433757 4.25
-11.307534 7.3083611 1.1306772 109.8402
-10.628134 7.3707209 0.96221244 3.4126985
-10.430414 7.3680725 1.0531539 16.5
-10.096516 7.4456835 1.0737641 1.5
-9.1993847 7.3765144 0.97900456 5.7361112
-8.7639923 7.3871303 1.0289123 3.40625
-8.6758614 7.3276291 1.0246108 2.0495117
-7.6496286 7.3540397 1.0608673 15.5
-3.1340523 7.3330669 1.0900564 35.406616
-2.7724252 7.413002 1.1472008 3.2631094
-2.6895828 7.2362819 1.1779964 0
-1.3455013 7.4853086 0.9642837 3.5
-1.0666245 7.3993092 1.0016296 11.895834
-0.73355913 7.4051414 1.0073366 21.416666
-0.41779828 7.3272085 1.0294585 4.6630073
-0.16599648 7.3513408 1.0659243 10.584375
0.22963955 7.4448395 1.0906668 8.0500002
0.49171174 7.4444742 1.038301 6.5088854
0.81435871 7.3454933 1.0446386 14.972262
1.0954738 7.3029656 1.0352942 9.8968554
4.4713812 7.4332919 1.038075 69.322655
4.619832 7.3034697 1.0075748 35.796597
12.878532 7.3403568 1.1385018 32.642361
13.006911 7.3344231 1.0494204 51.429157
13.246588 7.3027215 0.97765785 0.875
21.170523 7.3989906 1.090096 26.645042
21.430084 7.2438946 0.95548928 3.528646
29.627604 7.2587318 1.0421088 8.2065258
-19.514357 7.6290822 1.1001315 3
-19.446667 7.5896101 1.0904711 8.3787832
-14.025654 7.7394972 0.97265506 4
-13.039661 7.7238145 1.0226593 21
-11.581461 7.708457 1.1360348 35
-11.197894 7.5445318 1.0073713 9.9375
-10.907444 7.7369652 1.1842905 3
-10.793559 7.6944551 1.0469794 15
-10.399828 7.6862922 1.020107 10
-10.113788 7.625855 0.9880985 1.9979167
-9.7642231 7.6368027 0.9810546 4.0190973
-9.4943838 7.6222668 0.97384417 2.3333335
-9.1769371 7.6204567 1.0072528 2.9776785
-8.9353733 7.577508 1.0131334 3.1875
-7.4353266 7.5330324 0.96143764 35
-7.1182833 7.7916522 1.0750113 25
-3.0432284 7.5397673 1.1509118 28.833334
-2.7878942 7.5740857 1.00704 1.1747694
-1.5631108 7.6091156 0.9895336 20.066666
-1.3062716 7.5874872 1.0221585 21.902779
0.4926241 7.5422087 1.0267165 8.3000002
0.76311201 7.515491 1.0005336 3
1.1054282 7.6874323 1.0332675 11.583333
1.2685781 7.7266269 0.97487998 9.5
4.4345531 7.6243906 1.0446457 24.580284
12.840445 7.7030163 1.0857732 17.211094
12.989845 7.5728874 1.0097414 104.50328
21.047659 7.657002 1.0597185 51.584225
29.006939 7.6837416 1.1003194 10.53125
29.201614 7.6156058 1.0309838 9.9375
29.560005 7.536377 1.0353112 7.9853516
-19.506187 7.9948397 1.0621488 2.5
-19.463917 7.9566031 0.96645457 8.0130434
-14.095892 7.8555803 1.1950639 2
-11.7754 7.9374366 0.94605494 10.333333
-11.539303 7.9906173 0.98827922 18.75
-11.376438 7.8305483 1.0274642 38
-10.536428 7.8673587 0.94470066 7.3333335
-9.6999722 7.9127898 0.98435026 3
-9.3957272 7.8693156 0.99033988 1.1666667
-8.8335819 7.8506384 0.9582696 1
-6.9925818 7.8943214 1.1407119 5
-6.7214618 8.0428562 0.94428432 5.125
-2.2080081 7.9867744 1.0162879 15.75
-2.0157483 7.95718 1.0535247 5.5
-1.5757594 7.8286161 1.0056211 1.25
1.3911953 7.9558325 1.0264634 14.833333
20.966423 7.8254786 1.1101773 6
21.141289 7.9041882 1.0116758 6.625
28.405354 7.9578209 1.0882406 14.43998
28.501652 7.8840747 1.1858203 9
29.025383 7.8611517 1.0328553 8.7226562
-19.52549 8.368022 0.99052769 4.75
-19.454372 8.2766418 1.0439116 9.1052246
-11.77738 8.2160416 0.95941073 4
-11.424631 8.305953 0.93068492 1.5
-11.292466 8.1417112 0.98311383 35
-10.865427 8.3554707 1.053773 4.5
-10.641481 8.2788849 1.0029984 6
-10.408231 8.2594585 1.1424706 1
-9.8906441 8.3212795 1.081435 1
-9.0897293 8.3435516 1.0744877 2.25
-8.8452072 8.2692509 0.97915804 21.208332
-8.3514538 8.3623476 1.1809345 9
-8.029952 8.3477039 0.96422821 26.75
-7.6450005 8.286499 1.0439898 18
-7.4318752 8.3532181 0.95188147 13
-6.9198136 8.3350201 1.1397099 14
-6.1984029 8.3924789 1.1232735 19
-5.6916542 8.3521423 0.91004622 2
-2.808466 8.2860155 1.0249692 7.8000002
-2.6921978 8.2050095 0.95672017 23.25
-2.3239524 8.1938982 0.92693818 21.083334
28.372887 8.2081594 1.0638931 34.882206
-19.534277 8.4389114 1.0302833 5
-19.451134 8.5815506 1.127439 8.9191761
-15.983467 8.537466 1.0537009 20.5
-12.483858 8.6891394 0.96206611 4
-12.204938 8.5025339 1.1298789 26
-11.725427 8.4894209 1.0011843 16
-11.447121 8.5482597 1.1480501 9.5
-11.37437 8.575387 1.0177194 45
-11.05145 8.5220633 1.0911242 5
-10.720329 8.4041023 1.1010491 8
-10.042505 8.5546312 1.0653805 2
-9.7444544 8.4294415 0.94085515 26.333332
-8.8967237 8.4344368 0.97153896 10
-8.4187374 8.4273338 1.1462458 6
-6.3412766 8.4258823 1.0050026 44
-6.233285 8.4786358 1.1781126 1
-3.4300508 8.4927731 1.0636293 11.375
-3.1564474 8.4083633 1.0593586 6.25
28.406799 8.5995712 1.0708687 50.488663
-19.446579 8.8369083 1.0618033 4.9832139
-18.904425 8.9437265 1.0820254 2
-18.791046 8.9145317 0.93200505 4.34375
-16.494158 8.8847675 1.1440942 11
28.400749 8.8677769 0.99773657 29.122135
28.743361 8.8806667 0.96543783 22.5
-19.518517 9.1289368 1.0560589 2.625
-19.438595 9.0961208 1.1208656 8.3465748
-18.362207 9.1277466 1.0352432 3.5
28.37776 9.0983295 0.97355998 27.21875
-19.517195 9.3442888 1.1420453 4
-19.446501 9.4490719 1.0734537 5.5945544
-17.628643 9.3770132 0.99421591 11
20.176336 9.4615107 0.93708813 7
28.41227 9.3903875 1.1792188 53.515625
-19.508739 9.7399044 1.060711 6.5
-19.461163 9.6728354 1.0292565 7.1282082
-17.527237 9.816144 0.98981559 5.4375
28.424809 9.8003702 1.0206907 40.375
-19.518024 9.9931793 1.102165 6
-19.452736 10.046543 1.1088722 17.868555
-13.758741 9.9489832 1.1199054 6
28.397102 10.050585 1.0241219 48.899742
-19.448944 10.369026 1.0160223 23.532984
28.391029 10.328047 1.1418517 26.03125
-19.444832 10.556726 1.001668 28.695135
28.385113 10.693052 1.077155 28.916504
-19.502108 11.033944 1.1312394 3
-19.443676 10.925505 1.0929277 38.889412
-17.981287 10.986131 1.0191457 4
-14.030785 10.972459 0.92189664 21
-9.4046211 10.932302 0.93335128 1.75
-9.1400661 10.892217 0.91984665 4.9718781
-8.8644133 10.862826 0.92899936 1.9554094
6.1943655 11.047091 0.97072113 28.671875
28.382076 10.957496 1.0101395 32.745388
-19.539148 11.390473 1.112391 5
-19.447002 11.276329 1.0880903 18.293165
-14.121191 11.152615 1.1441593 8
-14.04768 11.279259 1.1221558 2
-8.7239609 11.210049 0.91127753 2.0625
5.9454603 11.242126 0.98569012 2.25
6.0943384 11.149559 1.0272782 31.317709
28.404858 11.287639 1.1050575 28.590237
-19.463985 11.601645 1.0499974 21.829979
-14.316534 11.519728 0.92553407 11
28.39043 11.481133 0.98720753 21.159996
-19.509743 11.979425 0.95437139 34
-19.46619 11.808191 1.0926622 12.443781
-17.425402 11.728064 0.90161943 7
-12.698496 11.782801 0.97245002 1
28.37384 11.981979 0.90958363 23.5
-19.521725 12.166875 0.99343902 6.75
-19.475456 12.191156 1.0589089 7.6608496
-18.063744 12.078156 0.98111999 5
-14.26086 12.155634 1.0378432 19
-19.504417 12.351326 1.0055463 9.6132812
-19.468185 12.474548 1.124651 35.119862
-14.226432 12.30978 1.0184336 10
28.366104 12.525565 1.0951116 13.375
28.674526 12.469305 1.082947 7.5898438
29.018681 12.503284 1.0395393 7.9492188
29.238373 12.51496 1.0770539 6.796875
29.41341 12.554816 1.0764166 12
-19.520082 12.720654 0.93416518 7
-19.462248 12.797548 1.1058369 40.766525
28.327686 12.819437 1.0551209 7.7847538
-19.509785 13.124899 1.0253233 12.987036
-19.487747 12.951889 1.1343788 32.797112
-17.352547 13.168219 1.0051582 4
-16.727493 13.046669 1.0357344 4.5
-5.4159474 13.094611 1.1788378 1
28.293625 12.98929 1.0977283 5.8743486
-19.608761 13.376504 1.0694591 24.517685
-19.487371 13.231329 1.01042 8.3984375
-14.104133 13.211185 1.1878415 3
-1.3014187 13.300025 1.1326746 1
-19.686985 13.727784 1.1002561 38.391476
-13.873344 13.621089 1.057554 7.5
29.561144 13.761273 1.0527316 6.9300737
-19.697945 13.974293 1.1154475 62.308971
-13.832068 14.044475 1.0191391 16
-13.724176 14.096121 0.99201769 15
29.525721 13.884369 0.98376894 6.625186
-19.805202 14.177595 0.92160571 4
-19.687914 14.267118 1.0371947 29.810991
-9.9396315 14.185467 1.0234848 3.5
-9.7494917 14.212965 0.96996653 6.6999998
-9.4937439 14.26778 1.034354 21.775
-6.9621444 14.171076 1.0635279 33
-6.8095717 14.247876 1.0541595 16.5
-6.455502 14.328794 0.97463739 18.400002
-6.1339478 14.390774 1.0443264 9
29.545139 14.178711 1.1482475 6.7059627
-19.727478 14.532703 0.94864118 23.956699
-4.9992657 14.695915 1.0277269 79.156845
-4.7561913 14.689916 1.0204107 60.583332
0.24989294 14.40678 1.1759192 1
29.564053 14.551659 1.0959938 6.4475069
-19.633698 14.871429 1.10971 24.784691
-7.1681552 14.963986 1.0529215 1
-5.1463413 14.94335 1.1270295 1.5
-4.9360027 14.765596 1.1147085 49.458569
-4.7221656 14.742315 1.0260803 89.921638
-4.4079075 14.926125 1.0859711 28.964247
-4.1192017 14.943796 0.9790417 19.552328
-3.6351242 14.983295 1.1826177 1
-3.5407195 14.9639 1.082334 1.328125
9.0544119 14.98335 1.1144354 2
10.659163 14.996493 1.1045289 2
29.387461 14.895683 0.96908081 7
29.534031 14.806597 1.1236415 7.4993362
-19.549667 15.207815 1.0176392 8.905901
-19.488575 15.214647 1.0564861 12.4375
-5.1010647 15.197228 1.1810411 2
-5.0201464 15.002222 1.1722927 2
-4.6344814 15.125269 1.1216872 1.1875
-4.256866 15.035376 0.98851925 18.726562
-4.110693 15.214003 0.98180509 2.2487447
-3.7368431 15.049005 1.1936139 1
-3.5201094 15.205572 1.1024737 1.7861328
9.0444641 15.131418 1.0474057 1.6383463
9.5329838 15.236475 1.1529006 1
9.6189928 15.277979 0.96197301 1
10.128262 15.290476 0.92082244 1.5
10.62495 15.134441 1.1105531 2.84375
29.502993 15.210579 1.0357045 8.2300129
-19.552895 15.372151 1.0979016 7.7682438
-19.42025 15.461357 1.007401 12.439718
-7.9201918 15.520164 1.1792341 3
-7.0025873 15.579048 1.0263044 2
-4.0897741 15.317358 0.91788781 3
8.9901018 15.346637 0.97972906 2
9.0069475 15.305059 0.92381006 2
9.5428047 15.350503 0.92954385 2
10.118803 15.339581 1.0888358 2.1666665
10.66439 15.320935 1.0943841 3
29.514194 15.38012 1.152951 7.3386469
-19.527975 15.781568 1.1487747 7.3125
-19.428551 15.717808 0.94560111 9.5509739
-15.60631 15.876334 0.93384248 4
-15.508225 15.820858 0.97355199 2
-6.8136506 15.8187 1.1826648 2
29.547573 15.798223 1.0670563 8.4044962
-19.522644 16.090092 1.1015958 7.125
-19.406414 15.989812 1.0855401 7.4133625
-15.203913 16.037552 0.9712162 4.1666665
-14.831844 16.09935 0.94755781 7.125
29.52733 16.022726 1.0498854 7.5673714
-19.516174 16.351986 1.1253364 7.6627607
-19.438488 16.37159 1.0757101 17.034315
-14.750653 16.260788 1.0142691 6
-2.7778778 16.412813 1.0975566 4
28.973743 16.464619 1.027084 7.2387424
29.30512 16.392635 0.93666184 11.383057
29.437454 16.311272 1.0593843 8.1236982
-19.418392 16.517706 1.0494089 4.174881
-17.104317 16.649986 0.9063521 7
-16.8939 16.556812 1.0681823 5
28.962952 16.540979 1.124002 10.671875
29.478531 17.374212 0.9439193 11.5
29.516401 17.991251 1.1291738 5
29.431276 18.122297 1.1432376 8.5
-20.201061 18.719311 1.0071567 6.5451393
-19.979107 18.761887 1.0527813 8.4547634
-19.616127 18.748451 1.0436909 11.131384
-19.462626 18.809803 1.0596095 12.799927
29.499422 18.77417 1.1890892 8
-19.5366 19.12924 1.1452019 11.99826
-19.454016 19.031332 1.0174985 9.1337605
29.470814 19.058723 1.0724919 11
-19.592281 19.352379 1.147532 7.515625
-19.40448 19.23933 1.0958141 4.4375
29.347534 19.406898 1.0848951 10.375
-19.607044 19.56707 1.1718978 7.5
-2.5172815 19.673487 0.95185006 14.578125
-2.3249359 19.753132 0.97233808 16.312534
29.471245 19.662552 1.052953 7.5
-19.658747 19.879324 1.1556799 5.25
29.503361 19.914783 1.0294124 8.0625
-19.587597 20.177319 1.0126793 30.760334
-19.267849 20.248646 1.0363379 38.491299
-19.003445 20.333458 1.0643296 44.516579
-18.822105 20.370693 1.1032665 66.581421
29.313166 20.264315 1.16032 12
29.457491 20.274628 1.0164621 9.7304688
-18.981659 20.426434 1.0521936 18.75
-18.776295 20.436235 1.0666237 32.454128
-18.557474 20.538755 1.0280293 12.381945
29.388805 20.683069 0.94444704 14
29.462017 20.556923 1.0451784 10.53418
29.37406 20.743437 1.0424148 7.7890625
29.457623 20.820705 1.0235617 9.1875
29.359987 21.045982 1.1212854 9.375
29.444397 21.158232 1.0414696 9.5058594
-19.635866 21.550356 0.9095735 5.5
29.353067 21.536728 0.9653846 11.552084
29.476957 21.402298 1.0236101 8.1100159
-19.596466 21.849644 1.066985 7.25
29.234335 21.777689 1.0680358 26.290642
-19.606306 22.063768 0.98674464 8.2184448
29.214901 21.995359 1.1153542 21.251024
-19.608032 22.379944 0.95474529 7.0091147
29.19335 22.349072 1.0751796 14.6185
-19.63891 22.572721 1.074106 7.8628473
-9.3837662 22.630936 0.9035843 4
29.186716 22.668137 1.0815744 20.576742
-19.681154 22.936819 1.0374531 7.5190969
-5.162241 23.022989 0.90062672 4
29.192621 23.005621 1.0208445 18.64917
-19.654127 23.290878 1.1212718 7.0234375
29.28186 23.228447 1.1316538 14.011108
-19.670254 23.509619 1.1122952 7.6024308
-8.7171469 23.642649 0.95516121 4
-8.696454 23.596189 0.98339355 5
-6.7312946 23.525063 0.96561897 5
29.225418 23.459595 0.95204383 10.600261
-19.658176 23.888798 1.035078 8.125
29.297115 23.788559 1.1290174 11.8125
-19.591259 24.173746 1.019104 8.34375
-19.456263 24.266748 1.0979115 7
-13.81352 24.205696 1.046155 7.625
-13.590092 24.257812 1.0683851 25.707228
-13.404975 24.267143 1.0788916 32.628025
-12.980306 24.275631 1.0319424 16.645214
-12.789342 24.270403 1.0832598 8.8770752
-12.221798 24.299229 1.1206417 13.5
-11.416858 24.289568 1.1282165 12
-11.160885 24.225344 1.055953 41.007812
-10.972304 24.248062 1.1043003 20.04948
-9.4962053 24.294888 1.0230827 11.5
-4.5377879 24.224419 0.98007333 6.4375
-4.2962117 24.235052 0.93741083 13.390106
-4.1611652 24.279716 0.93914723 17.375
29.374496 24.057632 1.1062055 8.5
29.474985 24.090944 1.142329 8.75
-19.567072 24.512066 1.0839841 10.25
-19.445723 24.390965 1.0882561 9.671875
-18.78731 24.575762 1.0398476 7
-13.565508 24.316814 1.1312397 9.078125
-13.320824 24.333525 1.1364319 19.034576
-13.068336 24.345211 1.054009 11.66679
-12.839713 24.338661 1.1110473 26.516779
-12.523176 24.366474 1.0860108 8.114687
-12.229844 24.383875 1.142117 10.197341
-11.827571 24.365219 1.1263895 18.42049
-11.563626 24.4566 1.0024122 10.856702
-11.32574 24.363977 1.0610273 21.837891
-10.95158 24.434212 1.0473702 23.705379
-10.629175 24.428829 1.0680695 41.952332
-10.304588 24.374325 1.0847462 38.394939
-10.016408 24.343557 1.1225992 43.563686
-9.7734814 24.402586 1.0807941 18.527725
-9.4555645 24.344975 1.1405492 9.5171213
-9.2822247 24.394381 1.1175501 11.5
-4.5873046 24.323683 0.93251747 42
-4.3271589 24.333378 0.90042812 13
-4.1396842 24.480936 0.91423678 34
-3.7091947 24.565018 1.0539091 9.1875
-3.4339511 24.580526 0.9119463 11
24.264578 24.37536 0.91884029 8
29.382589 24.405712 0.98984027 10.5
29.433945 24.374027 1.0139711 12.25
-19.694809 24.678921 0.99821669 14.166666
-18.757782 24.864752 1.0079614 10
-15.796615 24.897791 0.99300128 11
-13.74074 24.820021 1.0487471 16.875
-13.143733 24.841682 1.0165255 8.109375
-12.730057 24.714277 0.97201693 9.25
-12.141782 24.705935 1.0860648 11.75
-11.789986 24.686508 1.1086451 7.125
-11.566455 24.623533 1.1360178 8.5
-11.20347 24.662451 0.9549402 11
-9.7733498 24.674501 1.1006843 8.958333
-7.2346997 24.623884 1.1255578 3
-4.8137236 24.890566 0.91339386 24
-4.6575508 24.714481 0.92912799 43
-4.1142211 24.750381 0.94286478 37.875
-3.6882126 24.723824 1.0736778 7.9762774
-3.4408665 24.696882 1.1067324 8.5716791
-3.271647 24.709133 1.0548022 11.0625
4.4867592 24.865005 1.1120349 8.25
4.6602774 24.814331 1.122839 8.625783
4.8271055 24.766554 1.1169086 8.1600742
12.728633 24.888357 1.0513184 6.3085938
13.045109 24.884544 1.0279444 6.953125
20.838554 24.88937 1.1160594 10.5
21.084351 24.897097 0.91598809 7
28.824591 24.88327 1.0472118 9
29.272083 24.835983 1.1092964 16
29.441494 24.708179 1.0877481 10.125
-19.579895 24.987221 1.0685693 9.828125
-19.371792 25.100721 1.1020808 7.9960938
-19.085594 25.073349 1.049165 6.8107095
-18.630142 24.995678 1.0124785 6.3578286
-18.436359 25.063866 1.0898827 6.8083968
-18.120275 25.085222 1.025281 8.5516205
-17.842073 25.067482 0.96686423 6.8678479
-17.567627 25.119387 1.0916417 8.2222223
-17.216391 25.000208 1.0092105 5.7020874
-16.888382 25.093641 0.97520316 7.5361328
-16.6854 25.111759 1.146199 7.4594908
-16.338829 25.089256 1.095329 10.214548
-16.047062 25.072641 1.1211226 8.3914032
-15.718361 25.073715 1.105309 8.7153912
-15.372125 25.10487 1.0858904 8.923871
-15.088915 25.089504 1.0645125 11.53126
-14.821092 25.080257 0.97167432 10.059881
-14.631698 25.117912 0.99650693 8.7052021
-14.350273 25.082842 1.0131469 7.6878891
-13.648108 24.986614 1.0539517 15.0625
-13.31778 25.053818 1.0663557 10.115723
-13.06967 25.020342 1.0638324 7.705729
-12.749191 25.114588 1.0420666 13.644394
-12.554604 25.120367 1.0205119 12.563341
-12.234962 25.020164 1.0064384 6.375
-9.9430523 25.153069 1.1125495 13
-9.8272572 25.053486 1.0834627 7.875
-9.3782806 25.143671 1.096066 16.652927
-9.0733223 25.133217 1.0001895 13.315815
-8.7690792 25.173946 1.0684686 9.8524342
-8.558116 25.183132 1.0873736 10.213542
-8.3000841 25.191418 1.0374334 12.588541
-8.0522308 25.189674 1.1452377 11.664062
-7.6227083 25.166214 1.0187306 11.490155
-7.406806 25.188633 1.1105477 10.682508
-7.1114378 25.184641 1.0663221 8.666667
-6.7147326 25.19009 1.0001323 7
-6.3241987 25.184071 1.0353105 8.5
-6.1452613 25.178476 1.0949103 6.4933219
-5.8950186 25.177242 1.0770011 9.2013893
-5.4568253 25.188538 0.9346261 8.666667
-5.1300545 25.176325 0.93556595 12.5
-4.8702269 25.023752 1.1111882 13.565763
-4.7613125 25.072193 1.1416421 17.081867
-4.3778915 25.02861 1.1044834 49.75
-4.0901446 25.14246 0.94718152 8
-3.326472 25.039501 1.1148016 7.5
-3.2574165 25.055534 1.0955381 9.4856777
-2.1687818 25.189213 1.1763599 13
-2.0473654 25.149097 1.0070424 6.5
-0.68140888 25.133953 1.0937093 8.5
0.6406616 25.156509 0.98136395 7.21875
1.9853907 25.179737 0.99217576 8.75
3.25243 25.13554 1.0008242 17
3.3737817 25.142191 1.0599797 12.5
3.9495382 25.067898 0.99014616 10.5
4.4129477 25.116344 1.0138969 6.546875
4.5208077 25.108576 1.0330095 11.781575
4.9060268 25.041649 1.0771267 9.5
12.775179 25.060337 1.0098263 9.5695
13.037043 24.933382 0.93959451 6.5211182
20.793831 25.031422 1.079659 10.585739
21.06085 24.948479 1.0630066 6.375
28.892555 24.988506 1.0861597 8
29.197161 25.02504 1.1175228 11.065104
29.422991 24.963688 1.0750721 10.375
-9.6122246 25.218897 0.99172199 6
-9.468462 25.233807 1.1523769 6.5
-9.1718349 25.214823 1.0984149 10.527778
-8.8625278 25.212887 1.0738411 5.3125
-8.5847178 25.212755 1.053984 9.8496218
-8.2388391 25.222359 1.0769095 12.327074
-7.8739381 25.216457 1.091725 11.167052
-7.7296124 25.214638 0.98825908 10.184929
-7.3802357 25.216873 1.0274956 10.364767
-7.0938702 25.229614 1.0842538 10.213552
-6.7168379 25.239464 1.0572231 5.8482451
-6.490839 25.229843 1.0145903 6.9110837
-6.0989723 25.228184 1.1127775 9.5531254
-5.7753963 25.249462 1.1122775 6.2931442
-5.6251383 25.242947 1.1245074 6.9511867
-5.2138758 25.236267 1.1192834 6.6477871
-5.0636973 25.25951 1.1351496 8.65625
-4.5822239 25.24255 1.1735831 7.7122397
-4.3546009 25.250675 1.1048465 6.6308594
-3.996794 25.269978 1.1326158 5.629518
-3.8679228 25.221256 0.97300208 7.25
-3.3115075 25.260933 1.0114409 8.5
-3.1470451 25.271952 1.1111367 8.1190681
-2.8878009 25.27738 1.108674 9.1798573
-2.5340714 25.287308 1.1329036 11.007046
-2.1693678 25.227671 1.0147455 7.725801
-1.8767445 25.290529 0.97758299 13.636572
-1.6050611 25.290665 1.0356618 8.1688709
-1.3591528 25.298441 1.0366534 9.7624903
-0.99456608 25.303162 1.0568093 8.9820642
-0.74174356 25.258472 1.0646122 9.3303061
-0.48904955 25.297638 1.047326 7.1605372
-0.097671777 25.308426 1.021883 12.179546
0.13916011 25.323793 0.95679998 11.541782
0.47345629 25.2994 1.0272226 10.722919
0.68010795 25.297688 1.0160046 10.948371
1.0164464 25.330753 0.9846127 10.684763
1.3077399 25.325514 1.149038 9.0265694
1.6209114 25.301277 1.0808829 11.7064
1.9243472 25.289286 1.0053561 8.0364847
2.2846267 25.333794 1.0942543 6.8703804
2.5730286 25.337234 1.0812572 7.6099334
2.7782593 25.340172 1.0388031 10.150711
3.094008 25.342922 1.0775933 8.2180328
3.5161443 25.309422 1.148396 10.421995
3.8043242 25.348358 1.0311394 11.315878
4.1220388 25.371803 1.1211073 8.5193377
4.3922095 25.320992 1.0966188 9.6513567
4.5097599 25.262238 1.0188935 5.8489585
5.0780115 25.409056 1.0850074 11.669128
5.267683 25.375685 1.0827653 7.1067944
5.5383358 25.389805 1.064929 9.7976036
5.90343 25.353806 1.1323388 9.0707455
6.1358843 25.403305 1.0908933 8.1169224
6.5153489 25.384558 1.1599468 7.5761108
6.7680559 25.404156 1.0186 9.0510578
7.0150118 25.394844 1.0202885 11.31739
7.295784 25.385941 1.1262194 9.5074701
7.6553402 25.419483 1.069376 10.359318
7.9341879 25.424463 1.1251493 7.0163078
8.2353668 25.413179 1.0596619 11.282315
8.4920893 25.440376 0.97066915 5.4340591
8.8285351 25.402664 1.0826983 6.6126175
9.1402454 25.43483 1.0696075 8.6181374
9.4455366 25.439432 1.0328422 10.089632
9.837286 25.449972 1.0932176 8.3332424
10.015076 25.440603 1.1351087 8.1911478
10.387636 25.440617 1.0931718 9.3689861
10.609318 25.467815 1.0260371 8.9774942
10.913879 25.46056 1.0292794 12.791143
11.247375 25.446886 1.000035 7.7621326
11.532669 25.432867 1.0414827 9.3976955
11.806641 25.46987 1.054739 23.895828
12.13797 25.459476 1.1229758 7.7508368
12.42896 25.449879 1.042248 8.3122749
12.624554 25.40971 1.0835299 10.08231
13.468521 25.473169 1.1005201 5.625
13.663316 25.483435 1.1202291 6.4431357
13.99082 25.481339 1.074721 7.7862988
14.220494 25.424812 1.0164986 6.6082039
14.533737 25.481686 1.0252225 8.072916
14.90722 25.470825 1.0869809 10.575888
15.238255 25.393482 1.0970554 11.077179
15.500295 25.239143 1.0396184 25.297905
15.763357 25.28915 1.1007748 20.630695
15.988142 25.288694 1.0039787 13.733803
16.371983 25.250427 1.0356624 18.919069
16.706196 25.373806 1.1073684 9.4715176
16.846441 25.379143 1.1429188 12.500967
17.283428 25.328823 1.1214771 15.270481
17.494167 25.310066 1.1277103 12.364584
17.839479 25.309319 1.1201723 9.1790409
18.034576 25.308685 1.0075941 15.148438
18.401291 25.403765 0.97162092 10.125
19.089325 25.48597 1.0389812 7.5
19.448462 25.412579 1.037793 7
19.550091 25.46207 0.9846735 6.2109375
20.650772 25.420509 1.0134715 8.75
20.758291 25.403353 1.1254194 7.3160806
21.768238 25.493008 1.0431937 8.5
21.93103 25.472633 1.0364069 8
22.305779 25.467552 1.0302818 6.6705732
22.61298 25.463797 1.0204232 8.5
22.819502 25.499607 1.096421 9
23.669952 25.478992 1.1791844 9.25
23.763296 25.486847 1.022132 7.5
24.24481 25.477768 1.1802535 10
25.088017 25.379206 1.1977879 9
25.26342 25.497864 1.1968182 9
27.75403 25.459209 1.0779451 10.5
27.947088 25.490587 0.97058302 13
28.753185 25.441561 1.199868 9.5
28.937706 25.371157 1.0666002 7.6640625
9.9573889 25.511816 1.0098207 6
10.565865 25.504185 1.1045173 8
10.966014 25.517265 0.9430151 6
11.30617 25.517366 0.94161975 6
11.68795 25.521198 1.1048048 7.6666665
11.897177 25.503191 0.93790275 8
12.189091 25.531647 0.98756981 9.161458
12.382256 25.511803 1.0200671 5.9166665
13.488794 25.523144 1.0585477 5
13.735103 25.542032 1.0529424 9.0540371
13.866533 25.528923 1.0842055 7.375
14.310682 25.51071 1.1133635 10.5
14.583361 25.523808 1.0326802 7.2052407
14.811677 25.515057 1.0583168 9.0981503
15.158529 25.509453 1.0370994 9.4677734
16.846783 25.505112 1.1351445 11.5
18.524712 25.551109 1.0934758 9
18.716301 25.558994 1.0207124 6.393229
19.054287 25.581968 1.0521219 6.640625
19.374725 25.524632 1.1034728 6.75
19.794571 25.57481 1.0692828 6
19.913166 25.546509 0.98850238 6.8645835
20.235497 25.573593 1.0698419 6.71875
20.507248 25.581112 1.0385094 8.083334
20.825609 25.500914 1.1396565 6
21.53997 25.50453 1.0682273 7
21.760571 25.576099 1.024845 6.5625
22.084969 25.597935 1.065798 7.2930908
22.292978 25.538214 1.0506859 8.5954857
22.619596 25.625248 1.0315653 9.2582397
23.006149 25.585051 1.1119573 10.272522
23.319942 25.615658 1.0379314 8.020834
23.474819 25.55492 0.97019291 8.1601562
23.865662 25.579832 1.0892351 9.5
24.097534 25.616957 1.1175137 10.247396
24.449081 25.596027 1.004458 9.546875
24.767767 25.565685 1.1068223 9.75
24.973234 25.51775 1.1238676 9
25.407005 25.593267 1.0846584 8
25.662403 25.59119 1.1541077 11
25.910864 25.565361 1.0841224 9.9765625
26.204506 25.582077 1.0018564 8.5
26.616703 25.557522 1.0867133 11.5
26.844692 25.5863 0.98974299 8.609375
27.199928 25.634174 1.0348337 8.4967442
27.543062 25.592026 0.95678943 8.953125
27.690012 25.536657 1.0613723 10.125
28.018808 25.560532 1.0470073 10.96875
28.405006 25.613258 1.0707533 8.9023438
28.649366 25.537533 1.1089098 9.4331055
28.888235 25.565168 1.0997941 10.25
12.257613 26.23826 1.071941 14
11.836253 26.425154 1.1010598 6
2.888911 -28.80691 1.4665492 28
5.9138889 -28.862431 1.3322423 8.25
6.2158508 -28.886187 1.3831561 9.1914883
6.4143229 -28.874453 1.274178 10.21875
6.6845088 -28.83279 1.3744993 10.878256
7.0586495 -28.855709 1.405887 8.4197598
7.3918014 -28.860233 1.2553196 8.7065735
7.6119518 -28.815308 1.3660505 10.415039
7.8393068 -28.834011 1.3022625 9.53125
8.2804432 -28.81949 1.3301036 11.734375
8.6496143 -28.840082 1.342135 8.75
8.8785658 -28.826363 1.2780222 9.875
9.1464672 -28.854782 1.378891 11.111979
9.5129089 -28.829601 1.2930162 8.5
9.6289806 -28.830713 1.3191866 8
10.058918 -28.824623 1.318285 8.125
10.307056 -28.825127 1.34439 10.5
10.666158 -28.820328 1.3127666 11.5
10.966743 -28.813488 1.415341 12.75
11.238552 -28.842201 1.3788418 9.958334
12.160954 -28.820402 1.2244625 7.5
12.724865 -28.806116 1.2526016 8
12.929683 -28.81064 1.2737659 10.5
13.880495 -28.808945 1.2477188 11
-19.297586 -28.627302 1.419367 14
-2.1203196 -28.670143 1.2897296 17
-1.8790219 -28.686155 1.443746 24.859375
-1.6673992 -28.694569 1.4142841 17.71875
-1.3575692 -28.691555 1.4261826 22.5
-1.0831027 -28.676716 1.3664479 31
-0.72761071 -28.665344 1.3755326 46
-0.43534833 -28.655416 1.454463 36.5
-0.1728285 -28.656889 1.3956567 35.8125
0.12883842 -28.649052 1.3638928 37.0625
0.36967051 -28.662334 1.3279312 39.84375
0.76327789 -28.648479 1.2898562 40.125
1.0982645 -28.639305 1.4073319 62.78125
1.2861608 -28.636694 1.3894445 69.125
1.6166651 -28.635618 1.2963738 44.34375
2.0003872 -28.615105 1.438674 68.3125
2.3446779 -28.636654 1.3187315 50.9375
2.5639694 -28.646523 1.303894 35.921875
2.7912073 -28.698689 1.3723335 34.4375
3.1265035 -28.754631 1.2793825 30.625
3.4439156 -28.693356 1.422547 43.8125
3.7162018 -28.654057 1.3987933 38.416664
4.0814891 -28.642668 1.3384454 34.958336
4.3845119 -28.656425 1.3949087 27.772095
4.6707268 -28.65815 1.3281567 18.899088
4.9166899 -28.719982 1.3183551 19.698975
5.2213917 -28.614723 1.2595792 16.3125
5.4613471 -28.780058 1.4344798 30
6.7333689 -28.78088 1.295679 9
7.1825261 -28.798079 1.213101 10
7.7737069 -28.773239 1.3397379 10
8.0254593 -28.788893 1.4127893 11
8.2254143 -28.782597 1.3963223 11.5
8.6337433 -28.77774 1.2497271 9
8.8835564 -28.794428 1.2978194 10.5
9.1732006 -28.77129 1.2888734 9.75
9.4524651 -28.764854 1.2912197 9.859375
9.7911644 -28.775677 1.2479156 9
10.010287 -28.779785 1.4172385 9.5
10.275017 -28.780584 1.3057358 7.75
10.654921 -28.758991 1.4008381 9.25
10.8895 -28.769377 1.3357763 9.5
11.202391 -28.764683 1.3665558 10
11.495856 -28.78178 1.4150429 8.5
11.859178 -28.774708 1.3667954 12.575521
12.077886 -28.750694 1.3559132 9.7773438
12.523863 -28.748047 1.3989129 11.075684
12.761342 -28.772446 1.4041343 9.6015625
13.144298 -28.743185 1.3450267 8.75
13.319419 -28.571911 1.4474516 8.7070312
13.998049 -28.637051 1.3418977 10
14.657364 -28.752012 1.3685468 10.9375
14.789351 -28.737659 1.3476212 11.5
15.206236 -28.746374 1.450896 9.1523438
15.39197 -28.745392 1.4161745 11.71875
15.72866 -28.742514 1.300133 9.791667
16.092598 -28.706951 1.3800908 10.733072
16.333769 -28.697023 1.3071481 10.5
16.572372 -28.6984 1.2753718 10.84375
16.978386 -28.696936 1.3232657 12.723958
17.322374 -28.702656 1.3254415 12.75
17.544945 -28.659081 1.263495 12.5625
17.919575 -28.656796 1.3974931 11.583862
18.197075 -28.719223 1.3269861 11.445312
18.366344 -28.709892 1.303364 9.625
18.806213 -28.658928 1.3502502 9.3564529
19.025543 -28.667007 1.3301213 9.1652927
19.327278 -28.705921 1.34864 11.352539
19.661135 -28.693035 1.3539276 11.022346
19.932526 -28.695576 1.3964522 12.83148
20.246616 -28.70525 1.3504121 11.798822
20.570148 -28.639288 1.2971233 10.73468
20.744286 -28.618137 1.47331 11.5
21.118324 -28.655876 1.4316167 10.625
21.306713 -28.668114 1.4723258 11
22.173052 -28.647083 1.2741438 11
22.346479 -28.682346 1.287233 10.237793
22.661797 -28.657448 1.4065492 9.6637974
22.942699 -28.586872 1.3499153 8.859375
23.300724 -28.643276 1.3501961 12.203125
23.611437 -28.625355 1.3620465 10.5
23.861382 -28.616079 1.336777 11.85083
24.104818 -28.610729 1.3118758 12.386719
24.32975 -28.548717 1.3882959 8.5
24.650032 -28.605871 1.3536839 12.75
25.056576 -28.705215 1.3877431 10.5
26.846632 -28.59819 1.384743 10.5
28.104746 -28.573307 1.4639064 14.5
28.223143 -28.531338 1.3874482 14
-19.526524 -28.25532 1.3537936 18.5
5.332727 -28.315676 1.3904876 12.046875
5.4864693 -28.305254 1.3367143 9.1736107
13.429079 -28.27486 1.3682342 7.3359375
13.508139 -28.248957 1.2253773 5
14.051313 -28.233784 1.3582489 9.9375
14.169853 -28.407942 1.3201954 14.5
20.545765 -28.399038 1.2958795 14.703247
20.840803 -28.253029 1.2602575 11.40625
21.088827 -28.221497 1.279821 14.828125
21.441587 -28.375729 1.3234754 12.467545
-19.585213 -27.981068 1.274116 24
-19.463909 -28.186348 1.365671 17
-10.913173 -28.029366 1.4344585 19.75
-10.666418 -28.055672 1.3324912 22.75
-10.351098 -27.995956 1.3608602 27.791666
-10.119101 -28.020935 1.335135 23.484375
-9.7568493 -28.056698 1.3561914 22
-9.398551 -28.050888 1.4586275 15.5
-9.235754 -28.005379 1.386616 12.796875
-8.8736115 -28.008461 1.3302107 16.429688
-8.5876598 -28.01807 1.3949771 17.18034
-8.2821455 -28.008926 1.3655434 15.617188
-7.928607 -27.987066 1.4142452 19.45573
-7.6410522 -27.992376 1.414618 19.136719
-7.3849754 -27.983791 1.3069534 31.40625
-7.0463924 -27.935621 1.4336462 80.504395
-6.7455649 -27.962154 1.3889706 58.058594
-6.3628025 -27.977194 1.3976316 24.015625
-6.2296 -27.969269 1.3822254 27.8125
-5.5055594 -27.944963 1.3404315 31.114582
-5.3900371 -27.990925 1.4821463 29
-4.8072367 -27.966515 1.2669327 9
-4.6659684 -27.939547 1.3677051 28.317709
-4.3445978 -27.936743 1.4479932 69.28125
-4.0697579 -27.9314 1.2531905 44.5625
-3.725137 -27.958881 1.4032052 52
-3.3860986 -27.927361 1.2894533 101
-3.142714 -27.946724 1.4360394 65.75
-2.8557904 -27.986616 1.4170456 36.75
-2.6040559 -27.914335 1.2689034 43
-2.1587167 -27.962608 1.4114119 53.515625
5.6043568 -28.157808 1.3842832 7.375
5.7779207 -28.16127 1.3868585 7.5
13.480661 -28.177673 1.3991339 10.25
13.546694 -28.16803 1.4240544 10.8125
14.18466 -28.162748 1.3495322 6
20.532434 -28.181677 1.296082 13.125
20.833607 -28.153456 1.2859546 11.5
21.11578 -28.184414 1.2808099 17.125
21.445778 -28.124283 1.3974862 13.253906
21.634232 -28.061268 1.3009096 14.125
-21.966124 -27.706907 1.2897376 21
-21.18161 -27.683598 1.3717428 26.25
-20.841478 -27.700172 1.3260603 22
-20.247757 -27.688358 1.359256 32
-19.662338 -27.725107 1.3174423 29
-5.6131902 -27.727428 1.2307878 31.5
-6.0745802 -27.41482 1.3362294 7.875
-5.8786111 -27.344212 1.4135189 20.875
-5.6499929 -27.458992 1.4642957 28
25.814186 -27.342653 1.3900523 21.5
-5.8590574 -27.279278 1.4045755 23.5
-4.6565323 -26.704906 1.4240339 22
-7.9125013 -26.492332 1.3846066 9
-5.1580296 -26.421719 1.4073852 21.5
-5.056138 -26.412266 1.3553784 144.0625
-4.6955876 -26.476082 1.344697 24.5
-5.1827335 -26.380138 1.3141539 33.5
-4.9427557 -26.36729 1.3200092 150
-19.008957 -22.563946 1.4459527 9.25
-18.978405 -22.31406 1.3496661 21.46875
-18.995621 -22.066784 1.3584373 24.125
-18.980331 -21.723497 1.2687318 12.729166
-18.895178 -21.768291 1.4262102 21
29.906967 -21.668182 1.3571866 14
-18.993631 -21.404707 1.365975 14.56718
-18.894098 -21.343233 1.4786154 20
29.948475 -21.437113 1.3056983 11
-18.987701 -21.08873 1.3623024 17.333904
29.956213 -21.197279 1.3490353 11.75
-18.987043 -20.871376 1.3973033 20.001953
-18.892735 -20.723331 1.4828681 35
7.4431915 -20.700108 1.3777884 21
8.1922913 -20.968958 1.3713906 11
29.977293 -20.766697 1.3060954 11.5
30.020199 -20.898813 1.3152298 13
-19.01325 -20.477119 1.3811527 10.918881
-18.89164 -20.637901 1.4275782 29
29.937077 -20.628155 1.4938655 10
-18.964672 -20.266094 1.4157535 15.958334
-18.881964 -20.191427 1.4422722 26.5
-18.957794 -19.90168 1.39152 21.534969
-18.852158 -20.011703 1.2795634 32.695312
-19.095257 -19.635864 1.4243655 12.119917
-19.127525 -19.356815 1.4020452 8.89505
-19.13195 -19.137068 1.2912743 7.7330427
6.3434834 -18.924496 1.4274025 5
-19.254993 -18.712355 1.2201577 7
-19.130461 -18.702057 1.3464351 6.9335041
5.7873888 -18.837461 1.4681973 4
6.3395529 -18.788126 1.4767008 4
6.8910866 -18.794708 1.4622078 2
29.591751 -18.717041 1.4120908 11.5
29.708824 -18.652021 1.459254 13
-19.106953 -18.405495 1.3575807 6.2235718
29.515179 -18.440224 1.210885 15.5
29.877998 -18.587891 1.2852671 11
-19.206623 -18.221954 1.3101604 8
-19.139187 -18.082527 1.3681109 8.1796875
29.923748 -18.120564 1.3985115 9.71875
-19.210468 -17.923531 1.2043267 6
-19.123339 -17.810379 1.3373662 6.7963195
29.901005 -17.862679 1.3346725 10.8125
-19.200027 -17.573196 1.2665287 8
-19.147175 -17.546227 1.317508 6.3181152
29.926895 -17.608112 1.3889422 9.25
-19.15686 -17.195049 1.313627 7.1437173
29.89789 -17.155136 1.3063868 10.0625
-19.216652 -16.941338 1.3511181 6.75
-19.130888 -16.952414 1.3775835 5.6793151
29.917236 -16.938932 1.333863 11
-19.224176 -16.607635 1.4525764 7
-19.136309 -16.654728 1.3487515 5.9511309
29.916687 -16.535387 1.3140377 12
-19.214035 -16.371126 1.4894497 7.3333335
-19.154318 -16.299597 1.3667592 5.3815236
29.911785 -16.302723 1.3294847 10.5
-19.215336 -16.122698 1.285322 7.4375
-19.175838 -16.073664 1.2731502 6.2193332
29.865234 -15.988464 1.2730961 10.25
-19.205233 -15.677591 1.2334794 7
-19.157597 -15.794794 1.3938881 5.8424196
29.881878 -15.649438 1.3981326 13
-19.217855 -15.492343 1.4215026 6
-19.156197 -15.429857 1.2842169 7.7340903
29.889193 -15.498425 1.3346329 10.416667
-19.226536 -15.129038 1.3784195 8.25
-19.133829 -15.154715 1.2797475 10.355555
29.86657 -15.031559 1.3093117 10.625
-19.22121 -14.871067 1.2849146 5.9375
-19.172844 -14.837839 1.3748803 6.5479631
29.880524 -14.775643 1.349085 11.25
-19.207113 -14.577406 1.4588643 7.375
-19.164406 -14.602586 1.3699988 6.970078
29.933302 -14.591797 1.4340283 9.125
-19.245407 -14.218317 1.3742946 5.40625
-19.15517 -14.168724 1.3022709 6.8945923
29.906452 -14.382325 1.3089663 8
-19.23988 -13.988691 1.3367281 5.4208984
-19.16214 -13.928047 1.3682299 5.2460546
-19.207088 -13.618419 1.2744873 8.5
-19.173754 -13.59489 1.3218035 6.1261935
-19.20907 -13.282811 1.4178553 7.544271
-19.190266 -13.354294 1.3154218 7.8022056
-19.221199 -12.992336 1.3308411 6.1757812
-19.182606 -13.069593 1.3171489 7.052083
28.61022 -13.01219 1.2924051 12.233507
-19.214523 -12.688146 1.3093998 8.0117188
-19.170494 -12.789347 1.4222798 7.6520185
28.638363 -12.718729 1.4002588 30.734375
-19.2276 -12.353969 1.3750527 7.666667
-19.169598 -12.401179 1.4252698 7.6890082
-10.887287 -12.381596 1.2238232 14
-10.106575 -12.409557 1.2238457 6.5
28.646164 -12.402334 1.2788109 33.943848
-19.21175 -12.059379 1.3884499 8.9028215
-19.179394 -12.19076 1.2946039 6.5625
28.633884 -12.123985 1.350908 42.35791
-19.26561 -11.801889 1.3114383 3.8128254
-19.187445 -11.828552 1.4194864 7.3155379
1.5517735 -11.774902 1.2368381 2
28.657875 -11.818754 1.3586817 31.062225
-19.215845 -11.507421 1.3343378 5.3161721
-19.190834 -11.539167 1.3773959 7.9048667
1.6631641 -11.690794 1.2158937 2
28.698483 -11.604553 1.4746301 14.026041
-19.235027 -11.19694 1.369576 4.7546272
-19.191265 -11.19606 1.3488786 5.6614585
28.594765 -11.343834 1.4662466 9
-19.230518 -10.947565 1.3075968 7.0819025
-19.195078 -10.988041 1.3506374 6.75
-2.5214317 -10.938241 1.4487121 4.6744785
28.659702 -10.841919 1.4873297 8.5
-19.21349 -10.574738 1.2359335 5.3659124
-19.181156 -10.639204 1.2625015 6.59375
-10.973852 -10.55512 1.3962293 33.072868
-2.7263188 -10.580935 1.4908562 10.333333
-2.5798025 -10.611506 1.4092932 4.4183836
-1.8856373 -10.555645 1.4279053 10.305664
-1.7046239 -10.549969 1.3407123 2.836843
-1.2839794 -10.588323 1.3553338 12.293945
-1.1671729 -10.643085 1.3855665 1.5
-0.46402609 -10.595308 1.4193177 2.5
0.2161295 -10.592393 1.3817563 1.875
0.54299903 -10.587469 1.3125685 1.3664923
0.62890947 -10.612637 1.4640341 3
1.0598713 -10.641463 1.3870722 2
1.499487 -10.519966 1.3457434 2
1.7189902 -10.548891 1.3179791 4.8054686
4.8804216 -10.519913 1.339214 1.5
28.613741 -10.623075 1.4101971 12.34375
-19.227173 -10.331425 1.298486 6.3943415
-19.192692 -10.34733 1.2742047 10.348966
-11.402168 -10.249051 1.2911845 3.3333333
-11.20935 -10.227789 1.375701 28.178913
-11.034227 -10.352744 1.3501711 42.765629
-2.7505155 -10.239981 1.3835769 55.903275
-2.5363774 -10.365418 1.3995663 27.05743
-2.2104218 -10.259171 1.4031154 11.276027
-1.9321644 -10.301622 1.395684 18.56278
-1.6050631 -10.294767 1.4631147 10.60257
-1.3382431 -10.317281 1.4294685 9.5921803
-1.1008331 -10.252481 1.4260421 3.0247395
-0.42231411 -10.333217 1.3846111 2.7539062
-0.20743692 -10.338673 1.335555 3.1041665
0.18834339 -10.270517 1.3352377 2.1402078
0.47026873 -10.271107 1.3787549 2.2952504
0.60296291 -10.434086 1.4509106 4
1.6906992 -10.48525 1.3154806 3.5
1.9177027 -10.279781 1.2806259 4.666667
4.9950066 -10.340937 1.4302132 57.18998
5.1201763 -10.230386 1.2878605 67.083336
12.431271 -10.290705 1.3178763 5.9222512
13.094235 -10.259366 1.3138696 48.273483
13.204433 -10.2516 1.242903 70.5
21.196966 -10.233907 1.3493776 6.75
28.614994 -10.469564 1.4229604 12.125
-19.211342 -10.056559 1.3115478 9.3359375
-19.187981 -10.016828 1.3558607 35.1203
-11.273516 -10.193316 1.2817619 21.736328
-11.074913 -10.198631 1.4719915 67
-5.4721246 -9.9631004 1.2124393 3.4166667
-5.3418264 -10.052515 1.2629631 7.8594871
-4.776937 -9.9386616 1.3110328 2
-3.1708694 -10.128858 1.3168862 28.901514
-2.7772894 -10.079412 1.3596218 43.919659
-2.587311 -10.013273 1.3057747 37.04578
-2.245481 -10.183469 1.401021 22.8125
-1.5044895 -10.189241 1.4527664 5
-1.2381389 -10.167892 1.4160473 8.8812504
-1.0604646 -10.157949 1.4406385 14.520317
-0.83129042 -9.9544449 1.366344 16.171432
-0.38510197 -10.144949 1.4065847 3.5901525
-0.11322439 -10.068425 1.3470736 5.9898534
0.056915097 -10.116773 1.3681468 4.0450568
0.46325392 -10.179089 1.4276638 1.4354908
1.6835351 -9.9568701 1.27609 8
1.8558106 -10.105326 1.2588129 14.666666
5.0411553 -10.054394 1.4638894 86.6548
5.217886 -10.014554 1.4407095 51.345764
12.485825 -10.181709 1.3373957 8.6875
12.608558 -10.11877 1.2331206 8
13.160012 -10.017498 1.3815305 85.650208
13.25938 -10.008709 1.3175631 38.563046
21.271202 -9.9894409 1.4334595 59.838539
28.657652 -10.170702 1.2876701 9
29.01593 -10.190558 1.4391474 11
29.196119 -10.057151 1.3427945 9.6754951
-19.223728 -9.7598438 1.3449478 12.504416
-19.194807 -9.8124857 1.3195462 20.366146
-5.4319873 -9.6994286 1.2034637 1
-5.2366304 -9.8243084 1.2412667 1.5
-4.8792129 -9.8473549 1.2910042 5
-0.95276141 -9.8655605 1.2493379 41.061359
-0.79859984 -9.866251 1.3096638 30.231529
-0.51930392 -9.869091 1.3179314 9.2937088
-0.19542907 -9.8707619 1.2203212 13.352564
1.6523988 -9.7618208 1.2865632 1.2916666
1.8800309 -9.7014351 1.2857448 1
13.153099 -9.8939629 1.3688107 57.625
13.356804 -9.8231564 1.3152353 17.905411
13.513888 -9.8520107 1.3351778 3
21.283371 -9.8251104 1.4168996 43
21.40057 -9.7649393 1.4341826 21.71875
29.259945 -9.8608532 1.3237933 13.21875
29.581772 -9.8104038 1.266233 15.902344
29.856314 -9.6783648 1.2762284 7.4736328
-19.247749 -9.518465 1.3212482 13.397131
-19.193598 -9.5058613 1.3116144 23.880661
1.5814495 -9.5359097 1.3054581 1.75
29.699625 -9.5184278 1.4881147 9
29.801315 -9.4636908 1.270977 12.00708
-19.2132 -9.157011 1.2707913 11.660658
-19.191319 -9.2400532 1.4515498 12.898438
1.2552205 -9.2406731 1.2503451 7.75
1.7262081 -9.1108828 1.2448162 1
1.8819771 -9.0717134 1.3206937 1
2.2667217 -9.0452986 1.2339766 1
5.1904788 -9.0140209 1.2491466 1
5.5644965 -9.030549 1.2542617 1
7.0907078 -9.049366 1.2720485 3
29.838947 -9.1563854 1.3352041 11.80247
-19.243698 -8.9099684 1.3472321 16.28968
-19.191212 -8.8686037 1.3782208 33
-3.7311256 -8.8081369 1.2904875 6
-3.4931312 -8.8519564 1.273603 3.1666667
-3.172085 -8.7872772 1.2319353 4.25
-2.4582217 -8.7922783 1.2197423 2.5
-1.0010145 -8.7337122 1.2456298 1.25
0.32765916 -8.776165 1.207611 3
1.0324668 -8.9652786 1.216259 7.625
1.7131497 -8.9997711 1.2839543 4
1.9875212 -8.938942 1.2194798 14.75
2.3159661 -8.909749 1.3163404 1
2.6744719 -8.9336758 1.2125983 3
2.8393061 -8.9075069 1.2316568 10
3.1758964 -8.8767958 1.2719225 1.3333334
3.3626401 -8.7867603 1.2390078 6
4.1875978 -8.8042469 1.2200985 1
4.2115765 -8.8062744 1.2202588 2
5.7537775 -8.9402332 1.2202542 1
6.101954 -8.9877224 1.3046221 1.3333334
7.1262074 -8.9576969 1.2867969 2
29.838627 -8.9227619 1.4173685 8.3125
-19.260286 -8.6136951 1.3364382 4.1597061
-19.165855 -8.564744 1.3504325 4
-1.3416735 -8.5729523 1.2484283 3
-1.0268887 -8.6603594 1.3615555 1
-0.43053207 -8.650959 1.2013428 1
29.677872 -8.6689377 1.4993583 9
29.779751 -8.6387959 1.3945999 13.132812
-21.437603 -8.1401672 1.3853588 60.75
-19.27585 -8.2546997 1.4035463 3.3932087
29.817392 -8.2305479 1.3408934 8.7513018
